ply
format ascii 1.0
element vertex 512
property float x
property float y
property float z
end_header
0.134457 -0.402613 0.532455
0.024626 -0.124264 0.580815
-0.606937 -0.416829 0.259292
0.112718 -0.296771 0.476323
-0.096809 -0.411887 -0.412747
-0.004109 -0.482578 -0.040230
-0.329497 -0.687153 0.114354
-0.484242 -0.584626 0.017021
0.113710 -0.608212 0.567360
-0.134173 -0.014803 0.608977
-0.544823 -0.558288 0.669570
-0.115292 0.074340 0.198945
-0.141895 0.175517 -0.189195
-0.381824 0.186970 -0.182319
-0.059610 -0.365892 -0.403501
-0.282920 -0.183676 -0.313851
-0.290862 -0.613182 -0.149252
0.025800 -0.087563 0.232620
-0.657638 -0.072511 -0.037606
-0.320134 -0.501058 -0.409043
-0.507170 -0.566616 0.027569
-0.334706 0.211356 -0.038109
-0.197910 -0.600511 0.615148
-0.062441 -0.779688 0.484144
-0.088057 -0.005542 0.477210
-0.543623 -0.510443 -0.085115
-0.562226 -0.513398 0.111484
-0.279257 -0.548775 0.643169
-0.447850 -0.358181 0.727646
-0.029474 -0.081589 -0.317773
-0.586519 -0.008903 0.136915
0.135992 -0.475422 0.542837
-0.669623 -0.006478 -0.166676
-0.675154 -0.156248 -0.077980
-0.493987 0.198493 -0.113252
0.050567 -0.624555 0.379644
-0.096474 0.052256 0.239257
-0.078727 -0.409726 -0.388557
-0.143318 0.170598 -0.158994
-0.442846 -0.450600 0.697661
-0.329268 -0.550054 -0.348086
-0.262316 0.181791 -0.201054
-0.577947 -0.481788 0.034268
-0.353956 -0.299371 0.732841
-0.186391 -0.795934 0.430299
-0.591026 -0.401520 0.490881
-0.415280 -0.034356 0.582422
-0.331245 -0.680382 0.091818
-0.343330 -0.301937 -0.342663
-0.447326 -0.206270 -0.297490
-0.634698 -0.107258 0.105204
0.091467 -0.493895 0.328601
-0.054405 -0.025382 0.458267
-0.136495 -0.034608 0.686567
-0.640084 -0.136514 0.110085
-0.412461 0.051285 0.371566
-0.507829 -0.536402 -0.127887
-0.594108 -0.453015 0.007533
-0.174393 -0.542652 -0.270777
-0.080935 -0.013149 0.490753
-0.174776 -0.620197 -0.067042
-0.230999 -0.584749 0.624873
0.065959 -0.462059 0.621252
-0.019194 -0.024279 0.254068
-0.051026 0.079022 -0.255363
-0.437794 0.153117 0.074568
0.042857 -0.123386 0.318070
-0.538095 -0.183416 -0.277268
-0.423789 0.068216 -0.213926
-0.126882 -0.562217 -0.152670
0.083585 -0.399290 0.199712
-0.398291 -0.252744 0.753949
0.077919 -0.363746 0.145149
0.025914 -0.617230 0.295866
-0.476292 0.013352 -0.223791
-0.225263 -0.829895 0.546415
-0.640074 -0.321364 0.104450
-0.670780 -0.247009 -0.097035
-0.244609 -0.568326 -0.269195
-0.621843 -0.293678 0.295066
-0.122813 -0.055060 0.745486
-0.037286 -0.398389 -0.291081
-0.207359 0.104391 0.257075
-0.075948 -0.073371 0.737021
-0.379118 -0.051462 -0.258218
-0.275827 -0.620192 -0.126364
-0.044841 -0.708923 0.558919
-0.651840 -0.315968 -0.047119
0.120626 -0.414452 0.427885
-0.350222 -0.636444 -0.047668
0.089053 -0.227722 0.676593
-0.445552 0.214943 -0.100014
-0.051367 -0.528913 0.616862
0.126955 -0.534928 0.536813
-0.582100 -0.207675 -0.278656
-0.316110 -0.778914 0.435494
-0.015358 -0.523812 0.613326
-0.435962 -0.016688 0.505660
-0.299958 -0.790977 0.460028
-0.505089 0.181478 -0.166427
-0.582709 -0.061792 0.240111
-0.096611 -0.290688 0.698780
-0.544914 -0.556799 0.285845
-0.520253 -0.294466 0.758182
-0.423011 -0.650096 0.121855
-0.122194 -0.223100 0.723844
-0.675306 -0.169148 -0.078244
-0.095725 0.099127 -0.001415
-0.303243 -0.051532 0.760059
-0.567530 -0.512079 0.477519
0.100300 -0.609382 0.518323
0.096637 -0.356554 0.259709
0.049405 -0.218606 -0.064394
-0.169452 -0.282163 0.711899
-0.158015 0.164226 -0.078333
0.089697 -0.399599 0.233368
-0.256397 0.120471 0.238850
-0.570535 -0.194869 0.486058
0.092904 -0.247236 0.361602
-0.245174 0.158707 0.098684
-0.453711 0.210758 -0.096670
-0.054547 -0.409802 -0.322089
-0.420239 -0.564666 -0.230441
-0.564338 -0.364455 -0.330850
0.010318 -0.478798 -0.001227
-0.337599 0.204193 -0.183191
-0.592091 -0.327004 0.499821
-0.586963 0.043760 0.039013
-0.276218 -0.121211 -0.295026
0.001243 -0.622212 0.241669
-0.528579 -0.576765 0.248479
0.045273 -0.336183 -0.050693
-0.532541 -0.542039 0.036584
-0.506072 -0.470240 0.700485
-0.224557 -0.011093 0.663208
-0.052563 0.053125 -0.004135
0.068189 -0.260903 0.066589
-0.358962 -0.319427 -0.345966
-0.256874 -0.712023 0.163417
-0.272020 0.141215 0.176175
0.065738 -0.257700 0.048479
-0.062974 -0.745006 0.395845
0.051103 -0.139833 0.333490
-0.459939 -0.661892 0.307463
-0.201216 -0.519317 -0.364617
-0.647052 -0.203066 0.114902
-0.034853 0.050013 -0.254803
-0.086589 0.081738 0.046904
-0.175350 -0.505806 -0.365709
0.022335 -0.143368 0.717057
-0.440281 -0.551340 -0.249289
-0.641837 -0.241286 -0.280756
-0.436330 -0.148424 -0.280742
-0.194204 -0.160405 0.754000
-0.303205 0.054988 0.450137
-0.260879 -0.020106 0.689700
-0.309829 0.088666 -0.223750
-0.512490 -0.494698 -0.312212
-0.093463 0.058285 0.199031
-0.687641 -0.123997 -0.166069
-0.112240 -0.466289 0.645402
-0.046730 -0.784230 0.517553
0.076687 -0.208563 0.262394
-0.500195 -0.067404 -0.245948
-0.604119 -0.319351 0.419256
0.123434 -0.538932 0.588685
-0.530790 -0.219284 0.671558
-0.036339 -0.441455 -0.210843
-0.619949 0.066848 -0.099876
-0.430060 -0.399486 0.712020
-0.182107 -0.153736 0.754382
-0.257577 -0.686218 0.081366
0.007841 -0.581208 0.591831
-0.394313 -0.717352 0.338584
-0.333009 -0.432427 -0.385466
-0.479646 -0.513933 -0.320221
0.136060 -0.377874 0.637886
-0.599034 -0.418651 -0.260967
-0.556575 -0.541508 0.386160
0.007778 -0.060904 0.259660
-0.370796 0.104665 0.269095
-0.598878 -0.419999 -0.251946
-0.279401 -0.815070 0.525555
-0.619527 -0.388334 0.174569
-0.413628 -0.694985 0.293728
-0.249603 -0.379228 0.692623
0.052891 -0.590573 0.582421
0.040931 -0.143765 0.572948
-0.613376 0.066770 -0.079933
-0.113304 -0.377361 -0.399453
-0.145466 -0.681007 0.126862
-0.480344 0.089052 -0.199237
-0.345562 0.130759 -0.205308
-0.320600 -0.562053 -0.310476
-0.257823 -0.026762 -0.267746
-0.114602 0.057517 0.272659
-0.363469 -0.180848 0.771738
0.016954 -0.147709 0.727817
-0.352707 0.152149 -0.197512
-0.579213 0.111046 -0.073755
-0.091416 -0.605277 0.010117
0.064386 -0.293036 0.035175
-0.428059 -0.525012 -0.369865
-0.056636 -0.426173 -0.297118
-0.355973 0.201065 -0.181553
-0.226116 -0.676495 0.595119
-0.359661 -0.025765 0.636428
-0.027364 -0.466222 0.633283
0.117172 -0.304487 0.515799
0.069976 -0.664045 0.556708
0.003437 -0.462114 -0.051774
-0.107765 -0.761540 0.382528
0.046850 -0.150588 0.017138
-0.474855 -0.688104 0.565404
-0.504510 -0.158015 0.651388
-0.337247 0.125461 0.226860
0.057115 -0.394170 0.062508
-0.444418 -0.718143 0.537272
-0.367458 0.191552 -0.182923
-0.358561 -0.079418 0.777645
-0.329770 -0.579861 0.640550
-0.098600 -0.077527 0.766573
0.124245 -0.421761 0.453100
0.071705 -0.514074 0.272116
-0.309027 0.130346 0.217703
-0.510584 -0.300399 -0.318252
-0.539489 -0.202852 -0.283224
-0.417530 -0.380799 0.716146
-0.040020 0.019563 -0.284229
-0.243076 -0.335394 -0.367599
-0.068428 -0.540627 0.615592
-0.468558 0.166417 -0.176422
-0.153071 -0.638761 0.596621
-0.137167 -0.308162 0.699047
0.078191 -0.431479 0.200340
0.008077 -0.091949 0.494081
-0.344853 0.251102 -0.164396
-0.404209 -0.735796 0.451119
-0.306426 0.095823 0.325140
-0.394006 -0.561068 -0.276585
-0.252377 -0.025627 -0.268165
-0.563684 -0.524222 0.457120
-0.307614 0.202876 -0.015687
-0.549713 -0.474072 -0.260753
-0.217131 -0.095886 -0.295458
-0.201212 -0.661864 0.596190
-0.509557 -0.196608 0.705338
0.057540 -0.165210 0.133977
-0.436192 -0.539594 0.668525
-0.522061 0.059049 0.167169
-0.273461 -0.231855 -0.330462
-0.144658 -0.491159 0.642163
-0.163085 0.058493 -0.254297
0.090876 -0.266373 0.274416
-0.307019 -0.352428 -0.363848
0.026464 -0.094032 0.304512
0.010239 -0.106771 -0.318511
-0.616000 0.083761 -0.118691
0.039876 -0.288315 -0.115551
-0.161267 -0.715614 0.207692
0.133548 -0.498754 0.541262
-0.124717 -0.192088 -0.339144
-0.387202 -0.250994 0.752918
-0.106663 -0.613152 0.003702
0.131238 -0.501583 0.530534
0.108567 -0.414569 0.351049
-0.666334 -0.287366 -0.167676
0.011307 -0.527266 0.608418
-0.591142 0.028029 0.056369
-0.164275 -0.254478 -0.353245
-0.133232 -0.695140 0.177672
-0.016239 -0.089450 0.621414
-0.003494 -0.108629 0.662595
-0.523103 -0.408073 -0.350562
-0.557795 -0.524629 0.156637
-0.462572 -0.513939 -0.357253
-0.150821 -0.710349 0.201688
-0.354135 0.121258 0.231894
-0.000404 -0.407777 -0.153033
-0.456855 -0.511872 -0.376163
-0.471752 -0.644464 0.272046
0.124525 -0.309756 0.627075
-0.505726 -0.646917 0.600661
-0.151467 -0.322908 0.696422
-0.385067 -0.221814 0.761853
-0.007528 -0.442280 -0.120925
-0.621801 -0.167238 0.228599
-0.122104 -0.492024 -0.310198
-0.495542 -0.425825 -0.360126
-0.324284 0.223563 -0.178961
-0.375495 -0.751364 0.592775
-0.594550 -0.389593 -0.334489
-0.384724 0.099438 0.272541
-0.493654 -0.272650 -0.311885
-0.520774 -0.561460 0.673699
-0.026747 -0.654936 0.247682
-0.264906 -0.419412 -0.391085
-0.644054 -0.147792 0.099777
0.042799 -0.347739 -0.052354
-0.019191 -0.634829 0.220125
-0.513717 -0.621127 0.453838
-0.320010 -0.449218 0.680528
0.010950 -0.729973 0.492625
-0.617077 -0.406152 0.081097
-0.234383 0.047410 0.474188
-0.174512 -0.047214 0.765060
-0.047953 -0.763306 0.542141
-0.467465 -0.318594 -0.330182
0.068345 -0.560676 0.328661
-0.137433 0.071149 0.272224
-0.487030 -0.638804 0.329481
0.050440 -0.137868 0.312466
-0.259390 -0.749978 0.287611
-0.655183 -0.142507 -0.247564
0.046254 -0.140323 0.054478
-0.365945 -0.048018 0.687225
0.042920 -0.122832 0.123476
-0.331956 -0.684885 0.108487
-0.470526 0.134779 0.080430
-0.473787 0.170907 -0.015628
-0.262542 0.157195 -0.208811
-0.563204 -0.494265 -0.039031
-0.546609 -0.532433 0.087796
-0.048806 0.034115 0.095611
-0.444566 -0.206818 0.775113
0.044337 -0.124572 0.277427
0.080609 -0.206053 0.562638
-0.249357 -0.322313 0.710613
0.003089 -0.183653 0.718417
-0.263348 -0.298324 0.720212
-0.618583 -0.194940 0.270101
-0.069814 -0.733362 0.356777
-0.425035 -0.621255 0.004390
-0.136463 -0.293008 -0.369426
-0.359456 -0.791125 0.567527
-0.282738 0.181321 0.046143
-0.577133 -0.357841 0.603694
-0.683196 -0.202373 -0.158629
-0.049268 -0.659391 0.213049
-0.028085 -0.194486 -0.353726
-0.598741 -0.428405 -0.182679
-0.553088 -0.523008 0.081240
-0.538961 -0.580899 0.567167
-0.465142 0.047270 -0.214644
-0.631635 -0.367361 -0.289696
-0.647809 0.022596 -0.120275
-0.562241 -0.242609 0.582038
-0.004918 -0.532315 0.048565
-0.193076 -0.552073 0.629797
-0.333255 -0.742713 0.322276
-0.514940 -0.627527 0.549934
-0.627826 -0.252828 0.251311
-0.473125 -0.646826 0.292400
-0.367656 0.175094 0.067031
-0.419264 0.102306 0.230046
0.021196 -0.086089 -0.127660
-0.415192 0.209423 -0.059579
-0.319537 -0.453916 -0.394198
-0.379718 -0.084491 0.760731
-0.482751 -0.542975 -0.184856
-0.612778 -0.149850 -0.255955
-0.436893 -0.509759 0.678074
-0.427738 -0.149204 -0.282218
-0.606094 -0.183452 0.319349
-0.136658 0.163744 -0.151688
-0.025713 -0.183362 -0.350542
-0.599710 -0.437190 -0.077107
-0.611162 -0.366544 0.339293
-0.549012 -0.019053 0.263742
-0.202166 0.167411 0.010886
-0.411308 -0.359358 0.722046
-0.015839 -0.220514 -0.363721
0.118984 -0.300856 0.565855
0.096338 -0.601167 0.491461
0.034224 -0.420107 -0.005026
-0.227079 0.062616 0.419898
0.089255 -0.295348 0.221147
-0.664707 -0.222556 -0.012321
-0.215802 -0.452404 0.664613
-0.457513 -0.309988 0.744291
-0.528585 -0.603774 0.647838
0.047322 -0.223237 -0.082518
-0.249408 0.165987 0.076528
-0.645643 -0.342914 -0.280256
-0.205428 -0.417519 0.674177
-0.622571 -0.249431 0.283266
-0.288062 0.123430 0.238855
-0.363899 0.051597 0.422916
-0.681536 -0.060700 -0.165633
-0.672043 -0.104320 -0.233058
-0.227580 -0.182064 -0.321256
-0.233366 -0.644606 -0.040592
-0.503038 0.112789 0.081902
-0.527755 -0.581639 0.279370
-0.205832 0.116564 0.210533
-0.612382 -0.403979 -0.222839
-0.404399 -0.085757 0.724374
-0.427052 -0.469202 0.689511
-0.657866 -0.315488 -0.197605
-0.640742 -0.332141 0.065323
-0.524256 -0.527888 -0.096812
-0.135498 -0.082133 -0.302779
-0.388216 -0.065546 0.701001
-0.239259 -0.095450 -0.292154
-0.103203 0.071320 0.172308
-0.023017 0.002673 0.085631
-0.460181 -0.679102 0.403310
-0.141011 -0.713252 0.218642
-0.264181 -0.817769 0.521443
-0.072218 0.048161 0.157022
-0.165234 -0.252033 0.720838
0.076269 -0.201417 0.616237
-0.019574 -0.580993 0.106109
-0.196947 0.036666 0.489778
-0.183901 -0.617278 -0.083965
0.089973 -0.347613 0.213735
-0.455459 -0.017550 0.472934
-0.280200 -0.064313 0.796734
0.088155 -0.274570 0.677455
-0.113940 0.034857 -0.268812
-0.392983 0.174680 0.054556
-0.179593 -0.784871 0.554141
-0.080242 -0.666667 0.577365
-0.287996 -0.310076 -0.353156
-0.352622 -0.097264 0.796658
-0.368944 -0.594091 -0.181750
-0.500892 -0.052516 0.453420
-0.644191 -0.149427 0.100373
-0.435473 -0.524565 -0.361319
-0.362399 -0.316808 0.728526
-0.526677 -0.070890 0.424497
-0.052915 -0.382495 -0.367203
-0.580585 -0.152634 -0.261441
-0.217302 0.207343 -0.199400
-0.260421 0.025414 0.549090
-0.511386 0.114154 0.063652
-0.057907 0.059742 -0.004878
0.049245 -0.189308 -0.041165
0.029812 -0.111492 0.430271
-0.560229 -0.507059 0.030193
-0.566931 -0.079983 0.322153
-0.335302 -0.051228 0.730646
0.043008 -0.128534 0.062914
-0.494680 -0.205545 -0.290486
0.141365 -0.420498 0.579350
-0.480962 0.072886 -0.204269
-0.634377 -0.361790 -0.302463
-0.671624 -0.092212 -0.088639
-0.083628 0.107880 -0.126087
-0.671341 -0.141919 -0.057506
-0.567567 -0.189348 -0.274931
-0.069636 -0.575739 0.604645
-0.043226 -0.327511 0.679482
-0.382148 -0.440733 0.692104
-0.143753 -0.024847 0.659188
-0.553708 -0.526458 0.667991
0.029828 -0.220518 -0.205663
-0.023257 -0.674000 0.297298
-0.380629 -0.774085 0.551752
-0.270899 -0.734477 0.240299
-0.494543 0.080052 0.173964
-0.395766 0.148830 0.125852
-0.366672 -0.090516 0.794795
-0.594525 -0.093388 0.249240
-0.646820 0.012797 -0.102039
-0.025142 -0.256535 -0.373798
-0.371283 -0.713636 0.271189
-0.000755 -0.631013 0.254880
-0.565397 -0.513346 0.165029
-0.558422 0.021649 0.159102
-0.565354 -0.511656 0.533841
0.118381 -0.291535 0.627805
-0.065058 0.087406 -0.140601
-0.610109 -0.001021 0.048381
-0.353367 -0.769406 0.461881
-0.165027 0.119558 0.132021
-0.436031 -0.478194 -0.385224
0.061940 -0.300445 0.021133
-0.218233 0.156574 0.077026
-0.307895 -0.640023 -0.059955
-0.015767 0.009337 -0.220532
-0.278181 -0.052547 0.779331
-0.372712 -0.557467 -0.307103
0.122318 -0.455831 0.452202
-0.586352 -0.226392 0.456539
0.130732 -0.453711 0.502362
0.012498 -0.521299 0.610138
-0.201153 0.127175 0.164715
-0.590351 -0.300649 0.498778
-0.580332 -0.173422 0.417896
-0.214074 0.220061 -0.177728
0.035889 -0.135622 -0.089027
0.088028 -0.234322 0.338174
0.111914 -0.371833 0.643254
-0.400545 -0.631090 -0.004050
-0.661584 -0.100373 -0.233304
-0.040062 0.047767 -0.101308
-0.056105 -0.040919 0.539461
-0.563109 0.123197 -0.061751
-0.115033 -0.103879 0.760578
-0.285463 -0.620791 -0.125199
-0.305243 -0.704436 0.156235
-0.290482 -0.642976 -0.054300
-0.176739 -0.554909 -0.242098
-0.612818 -0.193164 0.297219
-0.233198 -0.798818 0.557392
-0.274894 -0.057626 0.795906
0.029670 -0.092215 0.057329
-0.251689 -0.652835 -0.021689
-0.421914 0.166520 0.054535
-0.081344 0.032629 0.277980
-0.220435 -0.808441 0.468931
