ply
format ascii 1.0
element vertex 512
property float x
property float y
property float z
end_header
-0.123328 -0.300540 0.296410
-0.603527 0.006336 -0.267434
-0.077299 -0.325768 -0.075242
-0.229856 -0.480441 0.037971
-0.621209 -0.013030 -0.139578
-0.367772 -0.371705 0.368574
-0.401641 -0.000027 -0.298327
-0.120448 -0.380832 0.164610
-0.483640 0.104127 -0.253612
-0.432355 -0.364703 0.205375
-0.213400 -0.453237 0.688343
-0.199372 -0.459468 0.654445
-0.639952 0.020500 -0.183653
-0.359219 0.089569 -0.276020
-0.289143 -0.232138 -0.387929
-0.410359 -0.372703 0.255106
-0.204312 0.162973 -0.154051
-0.388125 -0.381779 -0.421162
-0.435307 -0.022170 -0.300524
-0.127023 -0.413328 -0.126111
-0.269449 -0.309172 0.515879
-0.421727 -0.398272 0.176735
-0.674483 -0.123457 -0.298390
-0.197573 -0.143357 0.272195
-0.593719 -0.151981 -0.061463
-0.153147 -0.296402 0.403171
-0.500660 -0.438440 -0.220377
-0.351529 -0.126943 -0.345690
-0.359502 0.198811 -0.241383
-0.230813 -0.416932 0.651153
-0.057277 -0.282627 -0.135921
-0.579306 -0.401737 -0.400136
-0.105920 -0.213662 0.164574
-0.197551 -0.384689 0.613455
-0.239773 -0.068528 0.201007
-0.530102 -0.349769 -0.049145
-0.515890 -0.394570 -0.109069
-0.299230 -0.439451 -0.452143
-0.352005 -0.319372 -0.406564
-0.108296 0.160841 -0.289341
-0.277211 -0.328029 -0.420005
-0.361788 -0.505935 -0.354233
-0.188007 -0.426687 0.650635
-0.089051 -0.282613 0.107863
-0.216266 -0.141480 0.287138
-0.349026 -0.462749 0.173884
-0.289086 -0.464160 0.370878
-0.181382 -0.464616 -0.471309
-0.439699 -0.441370 -0.024873
-0.398459 -0.390770 0.261015
-0.197472 0.107358 -0.082543
-0.210966 -0.044076 0.145156
-0.197925 -0.458292 0.676782
-0.370496 -0.492983 -0.178110
-0.232558 -0.024454 -0.330249
-0.387966 -0.501175 -0.331641
-0.305082 -0.121414 0.282821
-0.222086 -0.477037 0.084862
-0.185375 0.051721 -0.017614
-0.199397 -0.458502 0.719782
-0.626411 0.119838 -0.222337
-0.696723 -0.144789 -0.301965
-0.246668 -0.460070 0.546000
-0.345919 0.202410 -0.133533
-0.307281 -0.245009 0.422759
-0.129273 -0.331962 0.334406
-0.375929 -0.359707 0.357359
-0.641238 -0.116299 -0.300879
-0.079785 -0.369532 -0.406080
-0.377191 -0.504080 -0.461459
-0.422885 -0.198021 0.252891
-0.195829 -0.445755 0.695345
-0.493394 -0.301926 -0.380815
-0.240967 -0.438710 0.631587
-0.241298 -0.397136 0.623943
-0.521473 -0.088966 0.049993
-0.257606 -0.104857 0.258967
-0.098771 -0.354878 0.037816
-0.377996 0.193948 -0.240277
-0.141918 -0.364458 0.402422
-0.264016 0.153046 -0.093070
-0.565555 -0.337050 -0.129658
-0.359541 0.085432 0.016529
-0.395191 -0.210043 -0.365763
-0.176092 -0.457570 -0.214615
-0.500087 -0.262932 0.116360
-0.164357 -0.432771 0.386657
-0.168483 -0.425839 0.515228
-0.569603 -0.425205 -0.396836
-0.207943 -0.459452 0.683541
-0.422180 -0.342712 0.255862
-0.160263 -0.432629 0.295948
-0.644668 -0.227839 -0.208074
-0.232837 -0.162608 0.327739
-0.244062 -0.468590 0.471569
-0.299172 -0.384715 0.521756
-0.202405 -0.470010 -0.011480
-0.515704 -0.059135 0.041164
-0.030026 -0.264519 -0.345911
-0.291124 -0.427240 -0.449435
-0.201806 -0.133454 -0.369169
-0.470564 0.186604 -0.229362
-0.522034 -0.349657 -0.391835
-0.022950 -0.187777 -0.265594
-0.141140 -0.358775 0.399332
-0.431967 0.137608 -0.068096
-0.128394 -0.325976 0.329190
-0.286426 -0.329785 0.519725
-0.261512 -0.373206 0.581925
-0.539169 0.038328 -0.056878
-0.088003 -0.150698 -0.390908
-0.197386 -0.441389 0.693007
-0.486398 0.205424 -0.171883
-0.279405 -0.485432 -0.469541
-0.166854 -0.450757 -0.186079
-0.087019 -0.373310 -0.314293
-0.548410 -0.228321 -0.349635
-0.092149 -0.325915 0.073946
-0.275145 -0.216203 0.405758
-0.188670 -0.421192 0.646901
-0.205216 -0.452018 0.707782
-0.195322 -0.454165 0.694017
-0.588292 -0.147371 -0.318293
-0.527828 -0.303489 -0.376384
-0.059252 -0.142140 -0.074318
-0.674765 -0.230503 -0.287221
-0.310634 -0.403847 0.485393
-0.536787 -0.277991 -0.367028
-0.113738 -0.387283 0.010321
-0.151004 0.056963 -0.072432
-0.417270 -0.143693 0.224668
-0.154174 -0.396201 0.460265
-0.159263 -0.408313 0.480067
-0.237293 0.011535 -0.318174
-0.222414 -0.344869 0.572836
-0.496786 -0.349574 0.047219
-0.301567 -0.498371 -0.172010
-0.154745 -0.393916 0.467425
-0.248474 -0.341899 -0.428508
-0.668559 -0.241351 -0.282109
-0.083446 -0.270463 0.078260
-0.123993 -0.092632 -0.367371
-0.215173 -0.460775 0.647675
-0.245320 -0.480239 0.206950
-0.311071 0.103257 -0.007380
-0.256944 -0.448277 0.564920
-0.074906 0.046211 -0.330420
-0.594529 -0.059733 -0.078186
-0.537336 -0.096801 -0.309566
-0.267940 -0.494822 -0.189051
-0.274433 -0.303624 0.506673
-0.125402 -0.417940 -0.298274
-0.197377 -0.276241 0.459925
-0.264454 -0.443587 0.554332
-0.203713 -0.102142 0.220289
-0.243698 -0.404732 0.626049
-0.269847 -0.445122 0.532833
-0.208477 -0.460118 0.675242
-0.214635 -0.469420 0.384170
-0.603417 0.003546 -0.268333
-0.514721 0.109832 -0.247360
-0.314648 -0.297230 0.461811
-0.427250 0.162849 -0.095466
-0.195222 -0.314625 0.511691
-0.157717 -0.221980 0.321027
-0.443727 0.197221 -0.229839
-0.264516 0.104505 -0.025482
-0.241125 -0.013263 0.124871
-0.054233 -0.319818 -0.449299
-0.066418 -0.307743 -0.122101
-0.371352 -0.078705 0.205117
-0.389585 0.097263 -0.004785
-0.297858 -0.122815 -0.352060
-0.282617 -0.291404 0.488225
-0.212457 -0.398303 0.642100
-0.215512 -0.332257 -0.430169
-0.573342 0.139371 -0.176596
-0.550684 0.049819 -0.079090
-0.382992 -0.455539 0.099515
-0.522666 -0.325881 0.009249
-0.271174 -0.354658 0.556581
-0.096193 -0.047137 -0.045516
-0.253655 -0.236562 0.433597
-0.584428 -0.411658 -0.391928
-0.126697 0.155710 -0.248872
-0.142727 0.085060 -0.124629
-0.173262 -0.047561 0.106664
-0.511452 0.109590 -0.247904
-0.358498 -0.248346 0.372422
-0.503141 -0.216965 0.118161
-0.195943 -0.045167 0.131532
-0.427930 0.105596 -0.261116
-0.200300 0.085014 -0.300195
-0.585132 -0.379997 -0.288731
-0.214185 -0.467298 0.485324
-0.229618 -0.481313 -0.015931
-0.151803 -0.397821 0.437943
-0.219044 -0.446723 0.679912
-0.132017 -0.109633 -0.371607
-0.577122 -0.267036 -0.070866
-0.333950 -0.030477 0.164848
-0.168144 -0.410172 0.546070
-0.629735 -0.152885 -0.136471
-0.085895 -0.256958 0.095664
-0.333496 -0.351307 -0.419326
-0.223476 0.048938 -0.308305
-0.343474 -0.354362 -0.418866
-0.179745 -0.005253 0.055810
-0.222805 -0.349603 0.579164
-0.273194 -0.464929 -0.463936
-0.444071 -0.246635 0.234153
-0.221494 -0.167607 0.327751
-0.508021 -0.235245 -0.357605
-0.016961 -0.020237 -0.359753
-0.436620 0.183557 -0.235183
-0.481323 -0.218624 -0.356159
-0.225388 -0.466849 0.534607
-0.186538 -0.191970 0.327712
-0.169935 -0.446533 0.158276
-0.201528 -0.460800 0.629258
-0.424519 -0.281170 0.273853
-0.527795 -0.332470 -0.385567
-0.411614 -0.505354 -0.447495
-0.460910 -0.271227 0.199752
-0.172008 -0.434187 0.509100
-0.236538 -0.175296 0.347094
-0.291652 -0.372085 0.535464
-0.245230 -0.422035 0.629001
-0.314109 -0.132313 0.293565
-0.164042 -0.447063 -0.097819
-0.289749 -0.483909 -0.467579
-0.243482 -0.456995 0.575292
-0.197783 -0.458471 0.659363
-0.170068 -0.445523 0.206936
-0.188797 -0.235953 0.392618
-0.198609 -0.458405 0.698897
-0.588077 -0.117295 -0.308798
-0.207976 -0.271688 -0.412065
-0.411399 0.181568 -0.239420
-0.028265 -0.187800 -0.230689
-0.252976 -0.470891 0.417880
-0.292608 -0.343255 0.521307
-0.280231 -0.456510 0.450584
-0.323456 -0.467243 0.230134
-0.209726 -0.460876 0.662375
-0.674334 -0.036800 -0.224381
-0.200812 -0.463877 0.382338
-0.549085 -0.236372 0.015960
-0.087194 -0.054551 -0.360574
-0.545275 -0.315066 -0.377555
-0.333441 -0.472205 0.156023
-0.221583 -0.153066 -0.372551
-0.204236 0.131683 -0.109874
-0.246006 0.153360 -0.272012
-0.096577 -0.392538 -0.442256
-0.180165 -0.189832 -0.390119
-0.158255 -0.306867 0.429575
-0.043326 -0.273268 -0.241439
-0.227411 -0.406204 0.645786
-0.419354 0.231619 -0.175662
-0.218258 -0.457864 0.658032
-0.353775 0.239494 -0.229318
-0.129152 -0.181888 0.203050
-0.137567 -0.070170 0.078283
-0.334219 -0.493174 -0.093017
-0.135484 0.076312 -0.124678
-0.218658 -0.457617 0.657908
-0.349773 -0.131731 0.275447
-0.369313 -0.270065 -0.388473
-0.258723 -0.459440 0.508277
-0.210042 -0.452593 0.697898
-0.514315 -0.355819 -0.014010
-0.365774 0.220533 -0.155958
-0.160076 -0.425057 0.402975
-0.220289 -0.476541 0.075420
-0.563064 0.158627 -0.183270
-0.496168 0.136167 -0.104823
-0.592592 0.042546 -0.257531
-0.514061 -0.057439 -0.300429
-0.300922 -0.323316 0.497397
-0.603950 -0.266542 -0.139272
-0.317920 -0.493162 -0.064540
-0.226191 -0.408279 -0.452718
-0.196734 -0.440794 0.691032
-0.305218 -0.429125 0.462911
-0.487549 0.195294 -0.224180
-0.624456 -0.170278 -0.320375
-0.226238 -0.480465 -0.034451
-0.492876 -0.438389 -0.424107
-0.406151 -0.352905 0.287692
-0.336541 -0.389416 -0.430959
-0.343168 -0.430387 0.340596
-0.266005 -0.424025 0.580967
-0.196018 -0.428890 0.673479
-0.124094 -0.332301 0.304790
-0.185070 -0.456643 0.230796
-0.104828 -0.400883 -0.420990
-0.211188 -0.296205 0.500734
-0.184330 -0.449382 0.539518
-0.262725 0.210726 -0.251452
-0.240142 -0.175227 0.348551
-0.403006 -0.148645 0.244764
-0.117122 -0.332354 0.260612
-0.185687 -0.450870 0.537994
-0.299544 -0.410254 0.507851
-0.135889 -0.155381 0.186614
-0.290817 -0.224395 0.410356
-0.257598 -0.107381 -0.352931
-0.278469 0.242380 -0.239175
-0.635584 0.032425 -0.254586
-0.279522 0.139513 -0.271603
-0.566300 -0.378273 -0.223957
-0.329742 0.036436 0.081376
-0.304679 -0.436769 0.445442
-0.025619 -0.211095 -0.269065
-0.334869 -0.360731 -0.422114
-0.148634 -0.435535 -0.150969
-0.370585 0.197782 -0.126697
-0.212663 -0.466159 0.520228
-0.363138 -0.310102 -0.402036
-0.489519 -0.402179 -0.046683
-0.279549 -0.486057 0.108533
-0.220400 -0.437295 0.677365
-0.274366 -0.460560 0.446860
-0.350128 -0.465625 0.150508
-0.472806 -0.249427 0.177874
-0.264713 -0.491039 -0.473418
-0.324571 -0.478800 0.120678
-0.219583 -0.460737 0.633715
-0.393272 -0.362303 0.312127
-0.617417 0.090811 -0.190977
-0.354687 -0.311322 0.409091
-0.496283 -0.408460 -0.088155
-0.133642 -0.414616 0.013916
-0.419215 -0.449854 0.004462
-0.290645 -0.127928 -0.354711
-0.433191 -0.444496 -0.434578
-0.487807 0.017973 0.015139
-0.132486 -0.428138 -0.425851
-0.416961 0.048203 -0.280861
-0.303243 -0.083374 0.235591
-0.149929 -0.443380 -0.473412
-0.278595 -0.468483 0.369847
-0.177434 -0.449150 0.321517
-0.175062 -0.393250 0.574174
-0.338837 -0.460067 0.226318
-0.046851 -0.112887 -0.384820
-0.466024 -0.153536 0.165793
-0.536752 -0.015882 -0.014765
-0.633988 -0.328530 -0.315555
-0.222136 -0.226826 -0.395832
-0.473903 -0.285441 0.166729
-0.587914 -0.263281 -0.094957
-0.057724 -0.146832 -0.078076
-0.126258 -0.324581 0.317711
-0.412203 -0.383355 0.233988
-0.579988 -0.040322 -0.062672
-0.067708 -0.349107 -0.456647
-0.341894 -0.480073 0.054006
-0.268793 -0.077358 -0.341821
-0.427869 -0.415434 0.112345
-0.256960 -0.281593 0.490002
-0.200261 -0.462929 0.431890
-0.171719 -0.447431 0.184797
-0.157833 -0.363224 0.483632
-0.597663 -0.262171 -0.118826
-0.255835 -0.222943 0.415997
-0.383832 -0.023093 0.137125
-0.178918 -0.316499 0.489421
-0.126602 -0.158648 -0.387905
-0.363236 -0.418755 -0.436433
-0.230581 -0.438265 0.657187
-0.290831 0.253137 -0.217739
-0.665745 -0.291341 -0.352809
-0.123717 -0.153450 0.154541
-0.293153 -0.393354 0.532908
-0.221401 -0.476773 0.086111
-0.083150 -0.145784 0.021949
-0.281315 -0.092473 0.247309
-0.018941 -0.246297 -0.397740
-0.165698 -0.451810 -0.296893
-0.406992 -0.460573 -0.013392
-0.076587 -0.342251 -0.174529
-0.228827 -0.477299 0.188049
-0.324874 -0.481410 0.090384
-0.413392 -0.056213 0.151619
-0.274962 -0.371908 0.562697
-0.624202 0.052553 -0.249840
-0.091049 -0.359490 -0.095441
-0.408528 0.182113 -0.239658
-0.629469 -0.183338 -0.323794
-0.138892 -0.052455 0.057023
-0.205687 -0.465187 0.447617
-0.209175 -0.054799 -0.343204
-0.561467 0.032053 -0.079172
-0.230240 0.103877 -0.289938
-0.227756 -0.487376 -0.442868
-0.637305 -0.097623 -0.295527
-0.022848 -0.028598 -0.302586
-0.336747 -0.500964 -0.231710
-0.274615 0.036380 -0.304967
-0.202003 -0.460622 0.651813
-0.372678 -0.336182 0.374843
-0.360522 -0.338922 -0.411538
-0.221941 -0.059432 0.176171
-0.309264 -0.472016 0.237290
-0.072123 -0.040983 -0.120095
-0.586605 0.099395 -0.158950
-0.378657 0.259324 -0.219478
-0.119258 -0.021232 -0.345435
-0.178573 -0.458187 -0.148566
-0.087555 -0.144679 0.036393
-0.186293 -0.442715 0.640658
-0.597355 -0.208507 -0.336358
-0.333022 -0.071673 0.215095
-0.153583 -0.436379 -0.011090
-0.529488 0.208418 -0.214025
-0.026618 -0.156308 -0.230877
-0.314096 -0.266371 -0.395201
-0.027577 -0.241834 -0.428415
-0.089558 -0.317199 0.070815
-0.159486 -0.374989 0.497583
-0.489471 -0.105675 -0.319223
-0.487161 -0.332554 -0.391406
-0.263207 0.015293 -0.313277
-0.208588 -0.454929 0.699328
-0.287642 -0.019943 0.152308
-0.270641 -0.500131 -0.389091
-0.201630 0.138832 -0.122666
-0.085636 0.121832 -0.304936
-0.263665 -0.477082 0.298762
-0.212912 -0.467462 0.461209
-0.178996 -0.332837 0.511564
-0.088295 -0.326703 0.035631
-0.208803 -0.466392 0.447001
-0.151086 -0.372429 0.454459
-0.246854 -0.184489 0.363467
-0.097407 -0.088317 0.006603
-0.286250 -0.481916 0.179245
-0.698291 -0.079476 -0.281056
-0.024423 -0.224060 -0.423237
-0.196778 -0.454482 0.705810
-0.023430 0.002503 -0.325787
-0.056806 -0.320477 -0.298285
-0.151992 -0.178759 0.252002
-0.134767 -0.054314 0.051539
-0.189956 -0.414348 0.641888
-0.122273 -0.418129 -0.402736
-0.060755 -0.343173 -0.429134
-0.690448 -0.161811 -0.275581
-0.122853 -0.344877 0.289578
-0.180429 0.212986 -0.251349
-0.530147 0.087616 -0.252189
-0.124574 -0.409316 -0.099342
-0.193571 -0.459425 0.413327
-0.604291 -0.332645 -0.235327
-0.156434 -0.377995 0.483601
-0.253682 -0.200231 0.386003
-0.181357 -0.070495 0.149834
-0.285370 -0.375137 0.547253
-0.633394 -0.067895 -0.143909
-0.331836 0.174482 -0.098471
-0.234947 -0.486026 -0.186890
-0.175575 -0.388537 0.571440
-0.034248 -0.195844 -0.412895
-0.128918 -0.149410 -0.384648
-0.024804 -0.222601 -0.422720
-0.294729 0.236298 -0.238776
-0.146282 -0.224591 0.298705
-0.171257 -0.406794 0.565401
-0.549279 -0.422177 -0.315172
-0.264778 -0.499401 -0.423930
-0.128266 -0.125847 0.131318
-0.141308 -0.261938 0.329984
-0.106416 -0.394056 -0.465346
-0.109733 -0.390325 -0.101887
-0.225154 -0.449286 0.661203
-0.225168 0.184407 -0.164750
-0.365455 -0.361232 0.381531
-0.257473 -0.488449 -0.017724
-0.208308 -0.179829 0.334460
-0.467685 -0.406218 0.011597
-0.414173 -0.223613 0.278731
-0.358878 -0.311795 0.401766
-0.173989 -0.311879 0.473563
-0.656959 -0.175107 -0.317254
-0.371257 -0.421105 0.277262
-0.217071 -0.455412 0.672119
-0.266640 -0.149561 0.320807
-0.468215 -0.392589 0.046855
-0.540155 -0.017796 -0.284142
-0.550461 -0.222151 -0.347387
-0.428802 -0.425306 -0.429129
-0.666530 -0.215033 -0.252424
-0.201733 -0.460377 0.660863
-0.471978 0.176424 -0.131878
-0.303759 -0.118907 0.279997
-0.122106 -0.408957 -0.153803
-0.421116 0.128778 -0.053260
-0.279953 -0.459902 0.431708
-0.330181 0.215038 -0.152707
-0.502968 -0.335935 0.049902
-0.165836 0.151278 -0.284139
-0.229289 -0.453775 0.637483
-0.206420 -0.104684 0.226531
-0.026600 -0.159812 -0.402578
-0.374965 -0.363295 -0.417191
-0.191627 -0.310487 0.501294
-0.248917 -0.486436 -0.005896
-0.117931 -0.315299 0.271904
-0.430598 0.001446 -0.293719
-0.333293 0.017368 -0.302595
