ply
format ascii 1.0
element vertex 512
property float x
property float y
property float z
end_header
-0.366307 -0.725673 0.539976
-0.230976 -0.598488 0.560898
-0.560055 -0.714995 -0.165635
-0.013280 0.191386 -0.174017
-0.046680 -0.296806 0.630080
-0.195366 0.146955 0.413113
-0.439135 0.120164 0.381854
-0.172360 -0.808153 0.285009
-0.350004 0.046846 0.638722
-0.500848 -0.402658 0.661520
-0.550959 0.168796 0.187609
-0.405253 -0.825939 0.232080
-0.334727 -0.531755 -0.357057
-0.396507 -0.353260 -0.291690
-0.113556 0.193067 0.313984
-0.408723 0.144075 -0.132436
-0.065274 0.089466 0.641783
-0.375555 -0.779847 0.109414
-0.254929 -0.352444 -0.311683
-0.736014 -0.005212 0.263543
-0.241479 -0.435406 0.614049
-0.734748 -0.020749 0.245193
-0.665504 -0.346538 0.360952
-0.362309 0.069176 0.567207
-0.596369 -0.651161 0.520633
-0.215453 -0.269814 0.662769
-0.170705 -0.223448 0.671053
-0.240211 0.273951 -0.115408
-0.315895 -0.838169 0.497138
-0.145276 0.235309 0.174880
-0.018250 0.210337 0.306138
-0.463423 -0.862899 0.314886
0.014065 -0.182186 0.657691
-0.125628 0.194041 0.305643
-0.156694 -0.601586 -0.317901
-0.544288 -0.354390 -0.270909
0.068888 -0.697722 0.486578
0.106416 -0.672047 0.489341
0.160776 -0.422734 0.151433
-0.346973 0.287052 -0.069245
0.074617 -0.100602 -0.170365
-0.024255 -0.835250 0.456346
-0.724495 0.181363 -0.075458
0.100832 -0.048082 0.249013
0.137169 -0.061964 0.645202
0.120045 -0.591328 -0.222889
-0.466292 -0.129543 -0.210856
0.104221 -0.204653 0.637680
0.081409 -0.152039 -0.200610
-0.457024 0.050902 0.578285
-0.441754 -0.862100 0.322338
-0.232544 -0.655796 -0.192160
-0.508223 -0.253936 -0.244254
0.158305 -0.597704 -0.186738
-0.160991 -0.256254 0.659273
-0.684970 -0.514525 -0.225905
0.026334 -0.709549 0.083791
0.109037 -0.379515 -0.362607
-0.030708 0.329120 -0.127903
-0.121854 -0.522350 -0.384528
0.109276 -0.006669 0.436413
-0.241966 -0.614552 0.557383
0.022488 0.250899 0.204801
-0.602777 -0.634481 0.481153
0.142229 -0.515688 -0.264423
-0.192176 -0.572754 0.563498
-0.493376 -0.814509 0.158426
0.158084 -0.424106 0.116948
0.076270 -0.024128 0.012316
-0.172236 -0.630302 -0.240138
0.162346 -0.401179 0.215859
-0.751996 0.051284 0.196899
-0.619974 -0.717099 0.103191
-0.682099 -0.347481 0.164455
-0.542887 0.111215 0.361301
-0.418569 -0.135908 0.734231
-0.129116 0.163617 -0.166242
-0.355232 -0.609590 -0.378774
-0.253327 -0.783320 0.175014
-0.532873 -0.088253 0.765674
-0.435691 -0.350978 -0.285362
0.042990 -0.200634 -0.306219
0.009655 -0.248019 -0.316458
-0.666744 -0.076743 0.788468
-0.326309 0.092795 0.513759
-0.492698 -0.779095 0.054153
-0.498200 0.259479 -0.056294
0.142286 -0.350464 0.089079
-0.685351 0.170490 -0.084501
-0.612307 -0.621571 -0.345796
0.062096 -0.074412 -0.261167
-0.581105 -0.798012 0.385913
-0.634778 -0.378584 0.652601
0.117798 0.012892 0.578055
-0.225650 -0.145103 0.703724
0.161328 -0.467710 0.061853
-0.330545 -0.727813 -0.023863
0.068886 -0.494110 0.551062
-0.633738 -0.609542 0.171573
-0.732446 -0.078216 0.149453
0.158766 -0.221731 0.557121
-0.649924 -0.591599 0.020203
-0.382243 -0.631685 -0.331143
-0.339200 -0.531391 -0.356302
-0.725102 -0.149028 0.084295
0.018204 0.284786 -0.008476
-0.686461 -0.538305 -0.294170
-0.582011 -0.781024 0.411569
-0.654023 -0.398682 0.384143
0.042138 0.161439 0.008603
-0.719362 -0.240040 -0.042794
-0.506326 -0.066951 -0.185307
-0.698213 -0.185482 0.321571
-0.624488 -0.486144 -0.301164
-0.351400 -0.643842 -0.281277
-0.679437 -0.437982 0.002396
-0.594534 -0.824698 0.171543
-0.594541 -0.397703 0.676492
0.002008 -0.733163 0.484920
0.055867 0.096575 0.030980
-0.577981 0.122074 0.313345
0.069515 0.031544 0.052040
-0.738919 0.056769 0.361853
-0.664455 -0.247237 0.585302
-0.465677 -0.666280 -0.266759
0.195389 -0.690097 0.102895
-0.321949 0.048849 0.645510
-0.674480 -0.451240 0.032175
0.008749 -0.502278 0.557077
-0.722852 0.160643 0.133853
-0.613855 -0.510418 0.616268
-0.596325 -0.679127 0.461424
0.064094 -0.546541 -0.380482
-0.381628 0.136482 -0.138716
-0.205918 0.199433 0.253366
-0.407196 -0.163141 0.723980
-0.389455 -0.486934 -0.335033
-0.538427 -0.175060 0.738976
-0.150983 0.130795 -0.173509
-0.669015 -0.018697 -0.146753
-0.609646 0.127634 -0.108903
-0.363686 -0.758980 0.529053
-0.256397 0.302204 -0.072977
-0.708965 -0.349677 -0.155077
-0.568146 -0.440689 0.659103
0.130879 -0.792208 0.447787
-0.764115 -0.002620 -0.060246
0.049690 0.184231 0.145772
-0.488022 0.089574 0.450051
-0.118858 0.007455 -0.217166
-0.091240 -0.464805 0.583248
0.179463 -0.558811 0.079830
0.195835 -0.772873 0.347536
0.192912 -0.488924 0.386691
-0.611012 -0.711006 0.221233
0.098713 -0.216480 -0.135434
-0.277154 0.228319 0.135808
0.070276 -0.361354 -0.361022
-0.682734 0.072457 -0.115922
-0.425976 -0.233940 -0.249686
-0.624312 -0.611163 0.278575
0.137522 -0.211096 0.330871
-0.526186 -0.186759 -0.220410
0.109989 -0.172685 0.090234
-0.607735 -0.767823 0.138303
-0.640781 -0.603173 -0.335897
-0.051716 -0.587227 0.538823
0.185329 -0.362046 0.568769
0.114238 -0.241175 0.624680
-0.339491 -0.635283 0.564767
-0.199395 -0.301818 0.650337
-0.352550 -0.068302 -0.207731
-0.478391 -0.235632 0.711206
-0.240943 -0.835070 0.487398
0.125698 -0.097087 0.435769
-0.657496 -0.388807 0.364533
-0.462862 -0.194051 -0.231777
-0.124572 0.263391 0.101326
-0.059107 -0.334985 -0.334164
-0.289123 -0.780199 0.511667
-0.731400 -0.011548 0.304084
-0.588046 -0.686538 0.542623
-0.390686 -0.869028 0.365921
-0.682507 -0.359451 0.134117
0.137100 -0.440928 -0.164889
-0.630001 -0.717210 -0.014551
0.088651 -0.009682 0.188260
0.085839 -0.130827 -0.103395
-0.188968 -0.147247 0.697798
-0.519974 -0.346849 -0.271999
-0.063946 -0.136910 -0.270741
0.162849 -0.241919 0.561861
-0.625448 -0.630687 0.223571
-0.055532 0.204693 0.305924
-0.422187 -0.871832 0.501681
-0.436769 -0.583199 -0.358753
0.158077 -0.282396 0.419497
-0.563862 0.138081 0.272469
-0.675054 0.199273 0.041419
-0.767593 -0.002401 -0.127492
0.070444 -0.061081 -0.134866
0.100982 -0.565815 -0.306863
0.159110 -0.661070 0.000750
-0.422025 -0.023624 0.770286
-0.471902 0.102514 0.419137
-0.721817 -0.305026 -0.210339
-0.343129 -0.522457 -0.352910
-0.607588 -0.683368 0.320381
0.071261 -0.384792 -0.368586
-0.020143 0.337963 -0.071604
-0.761236 0.036875 0.057841
0.129950 -0.512175 -0.400830
0.022554 -0.224687 -0.310913
0.095201 -0.118572 0.032488
0.009261 0.179660 0.409185
-0.661383 -0.230989 0.656003
-0.636754 0.066198 0.451739
-0.655572 -0.371760 0.423493
-0.655559 -0.634786 -0.138055
-0.533671 -0.856305 0.263608
0.135093 -0.044442 0.658291
-0.140745 -0.309531 0.639505
-0.006896 0.150238 -0.187962
-0.319794 -0.473258 -0.340667
-0.612885 -0.668302 0.290477
-0.502710 0.054601 -0.147328
-0.652969 -0.641066 -0.346154
-0.528773 -0.724122 -0.124519
-0.361538 -0.474768 0.618756
-0.153305 0.268794 0.072361
-0.631476 -0.744820 -0.109897
-0.242624 0.187500 0.271985
-0.765958 0.046050 0.022097
-0.752920 0.006916 0.091317
-0.581236 0.105701 0.360222
0.088832 -0.204099 -0.224792
-0.504274 0.113798 -0.128357
0.152043 -0.734293 0.213781
0.091084 0.116627 0.486510
-0.543783 -0.751691 -0.049901
-0.029995 0.240778 0.210926
-0.623946 -0.703868 0.084900
-0.088741 0.208543 0.279520
-0.741139 -0.077845 0.048372
0.170555 -0.323912 0.477064
-0.640300 0.131320 -0.103350
-0.391453 0.278810 -0.065047
0.049220 0.135568 0.036351
0.101066 0.080947 0.527297
-0.239297 -0.773347 0.506710
-0.242746 0.158599 0.357275
-0.651346 -0.696373 -0.220203
0.147133 -0.376355 0.090586
-0.452012 -0.683653 -0.209267
0.074409 -0.098819 -0.168993
-0.432948 -0.095595 0.749056
-0.507206 -0.567903 -0.343833
-0.530011 -0.752787 -0.040430
-0.418089 -0.309070 -0.274608
0.140824 -0.311095 0.156018
-0.464184 -0.531740 0.615396
-0.653891 0.111089 0.311413
-0.053099 0.083582 0.664672
-0.687022 -0.313971 0.178327
0.041538 0.251789 0.194514
-0.648728 -0.499722 0.230428
-0.630636 -0.284855 0.717394
-0.559072 -0.376230 -0.275711
-0.689797 -0.281943 0.214206
-0.581832 0.224338 0.009611
-0.278889 0.086420 0.554056
-0.045186 0.264194 0.134900
-0.615676 0.163361 0.174355
-0.228705 -0.245662 0.672314
-0.628764 0.060078 0.473429
-0.529973 0.043533 0.567018
-0.540830 0.165097 0.203119
-0.002677 -0.327937 -0.340004
0.188546 -0.389593 0.547648
0.168137 -0.475334 0.125374
-0.625624 -0.660530 -0.356161
0.033443 -0.544897 -0.399215
-0.652611 0.238145 -0.063209
0.152055 -0.452915 0.552212
-0.479382 0.140506 0.303559
-0.631299 -0.563656 0.298147
0.130621 -0.266482 0.131722
-0.656158 -0.364783 0.431522
-0.611992 -0.572266 0.506023
-0.305616 -0.610252 -0.359739
-0.690693 -0.259024 0.252645
-0.638641 -0.199435 0.745591
-0.078765 -0.561365 -0.401389
-0.603414 0.179409 -0.093397
-0.374885 -0.863566 0.356945
-0.644087 0.196581 0.063392
-0.095723 -0.260177 -0.305235
0.079979 -0.081985 -0.067768
-0.286283 0.240118 -0.119533
-0.629413 -0.717553 -0.008402
-0.522079 -0.013082 0.737779
0.134842 -0.421937 -0.150791
-0.376078 0.085090 -0.155786
-0.493353 -0.065263 -0.186628
-0.137492 0.208797 0.256695
0.164852 -0.419932 0.205186
-0.644400 -0.383668 -0.265861
0.132195 -0.150178 0.398530
0.169437 -0.358701 0.389671
0.008658 0.303105 0.044375
0.106433 -0.245891 -0.107775
0.166416 -0.238609 0.610729
-0.549148 -0.297561 0.701714
-0.095506 0.021094 -0.216187
0.088476 0.072355 0.361403
-0.440340 -0.413576 -0.304522
-0.411794 -0.596351 0.587439
-0.064062 0.152538 0.456077
-0.191855 -0.256068 0.663747
-0.129270 -0.777837 0.214995
-0.275202 -0.284842 0.666556
-0.422975 0.161751 0.266361
-0.625181 -0.687880 -0.275196
-0.446207 0.073987 0.515015
-0.670248 -0.044910 0.764679
0.137238 -0.428927 -0.137642
-0.070709 0.127782 0.526174
-0.718549 -0.326800 -0.218538
0.078084 -0.600061 -0.216100
0.198161 -0.620630 0.166950
0.044881 0.122547 0.593970
-0.020520 -0.763365 0.478577
-0.754123 -0.065316 -0.077032
0.064614 -0.020561 -0.116660
-0.569293 -0.060643 0.779628
-0.163458 -0.177742 0.684491
-0.618297 0.153626 0.201917
-0.620849 0.168901 0.155654
-0.659230 -0.547360 0.005627
0.156275 -0.517874 -0.104488
0.060260 -0.011598 -0.148546
-0.695096 -0.193107 0.341818
-0.692502 -0.088478 0.595650
-0.131381 0.273709 -0.131052
-0.221688 -0.759614 0.119335
0.153179 -0.665000 0.009670
-0.605153 -0.691681 0.331159
0.163091 -0.253060 0.540897
-0.001090 0.222349 -0.165954
-0.363515 -0.370371 -0.301828
-0.402583 -0.877778 0.496993
0.114528 -0.317066 -0.164901
-0.100608 -0.481434 0.579321
-0.634509 -0.687135 -0.003161
-0.011633 -0.444804 0.578195
-0.408494 -0.709175 -0.114196
-0.608136 -0.621961 0.445088
-0.671396 -0.308358 0.373439
-0.458893 -0.136004 -0.213961
-0.155251 -0.576314 -0.391875
0.075800 -0.514525 0.543608
0.163550 -0.726260 0.195270
-0.293603 -0.608844 0.566577
-0.326141 -0.807622 0.213810
-0.502087 -0.870990 0.321273
-0.296362 0.237922 0.098753
-0.662032 -0.477605 0.121750
0.016821 -0.312753 0.615946
-0.657271 -0.223185 0.720856
0.039777 0.198035 0.059078
-0.130732 0.181146 0.341410
0.098626 -0.301125 0.607927
0.058993 -0.797222 0.456481
-0.639113 -0.535058 0.267653
0.066208 -0.013247 -0.082362
0.067843 -0.110238 -0.270331
-0.300901 -0.028231 -0.202428
-0.236952 -0.498847 0.593309
0.128834 -0.617527 0.503401
-0.312329 -0.330457 0.657421
0.004003 0.156528 0.475116
-0.598278 -0.737830 0.313179
-0.434303 -0.786969 0.103847
-0.545003 0.230126 0.009196
-0.600821 -0.303745 0.707147
0.079923 0.167509 0.464378
0.138874 -0.087447 0.610771
0.063973 0.085116 0.101499
-0.547146 -0.751421 -0.052220
0.007987 -0.422965 0.582305
-0.339083 0.143183 0.359179
-0.048168 0.280664 0.084914
-0.687136 -0.202332 0.415401
0.114960 -0.196433 0.097772
-0.245767 -0.840358 0.346873
-0.422517 -0.009035 0.770906
0.030166 -0.817143 0.403256
-0.057811 -0.452156 0.582472
0.105196 -0.330889 -0.303784
-0.692376 0.221434 -0.031865
0.045147 -0.607263 -0.209746
-0.235483 -0.776008 0.505322
0.028198 0.212757 0.320022
-0.374666 0.173064 0.254828
-0.357176 -0.585270 0.583136
-0.313122 0.075574 0.570587
-0.559388 -0.090148 0.768867
-0.038239 -0.719297 0.083339
-0.409548 -0.621989 0.578998
0.126680 -0.147203 0.340254
-0.693152 -0.141818 0.474119
0.168777 -0.572301 -0.074208
-0.657923 -0.575015 -0.324527
-0.658736 -0.665759 -0.241427
-0.457609 -0.771031 0.046228
0.158990 -0.325272 0.338637
0.107292 -0.108242 0.196240
-0.169234 0.284460 0.018886
0.070855 0.005193 0.011481
-0.661709 -0.351254 0.395359
0.092329 -0.636853 -0.101001
0.037031 0.103085 -0.175867
-0.605505 -0.513838 -0.312650
-0.425348 0.111171 -0.140478
-0.296451 -0.693386 -0.110090
0.095162 -0.128202 0.011462
0.130202 -0.511284 0.536853
-0.725175 -0.147940 0.085761
-0.441986 0.192072 0.168216
-0.667882 -0.194533 0.657690
-0.375638 -0.779011 0.106909
0.210761 -0.606321 0.345167
-0.375847 -0.804528 0.182169
-0.521021 0.156905 -0.112309
-0.245268 -0.818570 0.282757
-0.106710 -0.472244 -0.370825
-0.333614 -0.165990 -0.241378
-0.622554 -0.679622 0.152982
0.033643 -0.453266 -0.384891
-0.266276 0.083488 0.568427
0.096885 0.033544 0.377074
-0.523998 -0.547191 -0.334872
-0.584248 -0.747940 -0.079301
-0.294168 0.121702 0.442950
-0.278685 -0.514873 -0.359727
-0.411955 -0.571522 0.595326
-0.094520 -0.348907 0.620422
0.116834 -0.179545 0.155802
-0.646199 -0.033154 -0.154596
-0.684669 -0.151599 0.552653
-0.264264 0.104228 0.508091
-0.066065 0.009698 -0.224007
-0.659529 -0.513841 0.073697
-0.714067 0.015749 0.565505
-0.639223 -0.708073 -0.221922
-0.723160 -0.243937 -0.095626
-0.676794 -0.156352 0.634794
-0.381045 -0.800788 0.168769
-0.184708 0.201732 0.256181
0.062573 -0.508756 -0.406603
-0.041602 -0.384888 -0.352472
-0.589169 -0.679507 -0.283615
-0.676808 -0.091853 0.772361
-0.508791 -0.837208 0.218477
0.150932 -0.339514 0.213780
0.183820 -0.420379 0.426519
-0.593885 -0.804921 0.221386
-0.244883 -0.859602 0.404101
-0.304504 -0.266138 0.676671
-0.727846 0.128106 0.227677
0.145351 -0.765540 0.303023
-0.486484 -0.091332 -0.195867
-0.713622 -0.129074 0.261445
0.050799 0.084334 -0.054553
-0.714411 -0.117239 0.277473
-0.596469 0.176964 0.142881
-0.600410 -0.072847 0.780213
0.202337 -0.498961 0.530437
-0.398534 -0.881681 0.399730
-0.583605 0.086821 -0.125553
-0.062160 -0.040090 -0.240334
-0.040778 -0.688882 0.505064
0.142662 -0.228006 0.354999
-0.748029 0.013891 0.163525
0.213018 -0.549853 0.492201
-0.733711 -0.006312 0.288183
-0.096711 -0.394077 -0.347500
-0.714525 -0.015360 0.493705
-0.498235 -0.369469 -0.282272
-0.030145 -0.745967 0.165762
0.103316 -0.007603 0.364567
0.203641 -0.699145 0.133350
-0.502482 -0.407876 0.660102
-0.286207 -0.417456 0.626132
0.157489 -0.530508 -0.117246
-0.593438 -0.734886 0.376189
0.093038 -0.564234 0.525399
-0.696924 -0.333948 0.019624
0.157591 -0.466444 0.020760
0.051508 -0.662248 -0.044493
-0.532917 -0.328523 0.689586
-0.572048 -0.786904 0.515769
-0.241676 -0.435216 -0.339793
0.241339 -0.752679 0.390956
-0.084538 -0.821747 0.364915
-0.347439 -0.376819 -0.306170
-0.378051 0.076171 0.539424
-0.614392 0.094196 0.379184
-0.443418 0.174948 -0.117696
0.125433 -0.186321 0.242101
-0.470892 -0.802470 0.133055
-0.260762 -0.546447 -0.372290
