ply
format ascii 1.0
element vertex 1681
property float x
property float y
property float z
end_header
-0.510034 -0.199805 0.000190
0.291752 0.119054 -0.052462
-0.905836 -0.091077 0.521733
0.746128 0.101815 0.604572
0.197395 0.105366 -0.214202
0.035240 0.020636 -0.491170
0.884398 -0.064960 0.330278
0.594288 -0.185057 0.017040
0.533560 -0.054989 0.482334
0.400738 -0.114121 -0.548089
0.820971 -0.169287 0.387515
0.334634 0.198406 -0.264084
-0.570103 -0.091740 -0.250824
0.392241 -0.154477 -0.483646
-0.778296 0.037278 0.109779
-0.255043 -0.196134 -0.387276
-0.871058 -0.061783 0.302254
-0.749140 -0.001562 0.045970
-0.561508 -0.081891 0.514876
-0.665080 -0.195361 0.225253
-0.252029 0.120688 -0.603616
-0.760930 -0.150259 0.216388
-0.828393 0.132490 0.307733
-0.516229 -0.088529 0.420789
0.440033 0.199770 -0.094799
0.593035 -0.178221 -0.017751
0.434730 0.103815 -0.497107
0.661689 -0.114866 -0.043861
-0.282111 -0.188208 -0.273135
-0.291780 0.193497 -0.291569
-0.694528 -0.051337 -0.044778
-0.120357 0.086732 -0.340528
-0.921015 -0.021344 0.379804
0.936345 0.115457 0.486567
0.425282 0.172793 -0.362782
-0.597278 0.154148 0.464306
-0.441860 0.188675 0.032006
0.673062 -0.178179 0.530950
0.794324 -0.171188 0.342837
0.620152 0.004464 -0.202617
0.275533 -0.050463 -0.012442
-0.515224 -0.004441 0.463617
0.199339 -0.193551 -0.470243
0.600371 -0.129505 0.524521
-0.304712 -0.135119 -0.056253
0.146504 -0.145611 -0.548881
0.469103 -0.137564 -0.374872
0.820910 -0.145495 0.320660
0.605177 -0.198168 0.261440
-0.147510 0.166623 -0.439331
0.538481 -0.085229 0.467146
-0.640549 0.042895 -0.153293
0.251121 -0.194766 -0.578547
-0.213852 0.049601 -0.583814
0.225572 0.083498 -0.134378
-0.151198 0.149849 -0.551316
0.535730 0.025020 0.499845
0.461364 0.198321 -0.130656
-0.102598 -0.063922 -0.354581
0.679197 0.199996 0.342809
0.152686 0.104306 -0.298982
0.705180 0.171488 0.619097
-0.044087 0.039403 -0.453117
0.353094 -0.124887 -0.622506
0.215216 0.120030 -0.201600
-0.622498 -0.050464 0.656487
-0.585848 0.127066 0.500950
-0.545128 -0.115766 -0.267204
-0.843264 0.118468 0.311826
0.804020 -0.033255 0.574544
-0.820124 -0.120325 0.566191
-0.586901 -0.195213 0.073077
0.094030 0.078709 -0.383369
0.250222 -0.192132 -0.602195
0.438991 0.038331 -0.543942
0.228141 0.160354 -0.264535
-0.508206 -0.097050 0.395625
-0.774253 0.186416 0.371395
0.743676 0.191502 0.595069
-0.646200 0.166401 0.040890
-0.730901 0.049428 0.612469
0.574735 0.128411 -0.188929
0.660957 -0.109220 -0.053567
0.571704 -0.198888 0.092505
-0.315938 -0.136853 -0.038105
0.111122 -0.154998 -0.475224
-0.486959 0.167010 0.213838
0.617863 -0.154652 -0.048196
0.737332 0.133331 0.133797
0.371153 -0.173746 -0.033271
0.408940 0.168814 0.057364
0.434591 -0.008242 0.307898
-0.463583 -0.199991 -0.074434
-0.814753 -0.013249 0.173408
0.413118 0.014009 -0.600809
-0.714488 0.008831 -0.020428
-0.593378 -0.141749 0.486462
-0.462221 -0.002298 0.361507
-0.469149 -0.157196 0.209072
-0.801883 -0.159214 0.319129
-0.606045 -0.112225 0.563993
-0.566191 -0.024648 -0.303448
0.552174 -0.134102 -0.221672
-0.555797 0.085436 0.500318
-0.651715 0.199386 0.326505
-0.709381 0.141438 0.623632
0.569099 -0.061598 -0.280039
-0.599113 0.194531 0.090203
0.296412 -0.115305 -0.037591
0.153861 -0.096058 -0.552697
-0.539945 -0.198353 0.021377
0.231479 -0.199751 -0.496035
0.211308 0.196097 -0.471188
-0.614435 0.199992 0.224594
-0.242058 -0.154089 -0.598444
-0.562609 -0.040233 -0.304786
0.074935 -0.039626 -0.511759
0.168123 -0.193152 -0.527153
0.831890 -0.152109 0.357836
-0.588963 0.030637 -0.257729
0.204401 0.110138 -0.207324
0.562161 -0.145433 -0.178339
-0.187097 0.044195 -0.179626
-0.085724 0.129425 -0.517355
0.451035 -0.161010 -0.352073
-0.125843 0.172358 -0.501013
0.170370 -0.080508 -0.237884
-0.348629 0.082285 0.104071
-0.921261 -0.040169 0.513732
-0.524794 -0.021742 -0.383996
0.710926 0.098260 0.028321
-0.270894 0.006931 -0.007592
0.489292 0.197096 -0.094399
0.823727 -0.055972 0.564322
-0.505386 0.178935 0.204424
-0.798611 0.197679 0.509723
0.369539 -0.111619 0.108910
0.098688 0.112473 -0.524079
-0.466054 -0.011966 0.368148
0.696383 -0.196751 0.300640
-0.362087 0.128850 0.066325
-0.429804 -0.182877 0.040519
0.746071 -0.091990 0.088713
0.130405 0.170424 -0.485233
0.356540 0.174902 -0.065910
0.312276 -0.172539 -0.581595
-0.840367 0.173347 0.439559
0.405782 -0.023019 0.249838
0.794150 0.112345 0.207739
0.064352 0.092585 -0.506270
-0.336980 0.167502 -0.551643
0.296129 0.154130 -0.116245
-0.407723 0.026759 -0.608373
-0.168386 -0.133371 -0.560231
0.338245 -0.199777 -0.332362
-0.165031 -0.059107 -0.230834
-0.562744 0.195699 0.210565
0.369577 0.152405 -0.532726
0.491866 0.140275 0.293934
-0.581927 0.185912 0.318092
-0.789581 0.156656 0.288263
0.670768 0.180519 0.516224
0.634841 -0.178814 0.065400
0.500437 -0.179585 -0.190346
-0.554417 0.034240 0.532872
-0.621837 -0.123263 0.576963
0.848933 -0.049937 0.252111
0.893405 0.070622 0.352074
0.654591 0.104602 -0.072185
-0.286567 -0.057550 0.004513
-0.182249 -0.095005 -0.567421
0.316593 -0.175819 -0.560640
-0.959608 -0.006941 0.451989
0.413214 0.054673 0.250508
-0.896720 0.060600 0.350902
0.373983 -0.191634 -0.118640
0.458604 -0.162684 0.172854
0.416290 0.186919 -0.315903
-0.662501 0.167402 0.550979
-0.297026 -0.179112 -0.198050
0.584796 0.191348 0.037106
0.487638 0.049474 0.397040
-0.213973 0.189744 -0.414135
-0.287442 -0.174963 -0.199368
0.295891 -0.088745 -0.626366
-0.679479 -0.177476 0.546287
0.427782 0.149742 0.148711
0.479654 -0.198108 0.020373
0.613562 0.194298 0.115957
0.497991 -0.181674 0.177768
-0.480216 0.188566 0.106625
-0.700845 0.115245 0.032211
0.438815 0.132847 0.206741
0.095373 -0.160263 -0.520240
-0.214107 0.199895 -0.565270
0.816179 -0.175345 0.568237
-0.699861 0.012374 -0.048219
0.432700 0.144143 0.171371
-0.437315 -0.024576 -0.551934
-0.054727 -0.000201 -0.424090
-0.760143 0.164649 0.254954
0.325761 0.183009 -0.511125
0.546067 0.089494 0.477274
-0.090185 -0.101016 -0.519669
0.222639 0.139591 -0.588371
-0.490000 0.062687 -0.431763
0.448914 -0.133509 0.224929
0.868777 0.050808 0.290860
-0.822015 -0.170688 0.565210
0.286006 -0.192657 -0.529191
0.431539 -0.134948 -0.452580
-0.587349 -0.022925 -0.263105
0.520063 0.193391 0.149421
-0.313724 -0.124374 -0.018964
0.299251 -0.158886 -0.123215
-0.706021 -0.199438 0.429752
0.296974 -0.111692 -0.031098
-0.392085 -0.001349 -0.642417
-0.409153 0.145333 0.123263
-0.521481 0.187386 -0.110408
-0.454752 -0.082467 0.308491
0.194446 0.199745 -0.567169
0.583423 0.040233 -0.264657
0.207083 0.197127 -0.491365
-0.540964 -0.136255 -0.238996
0.578562 -0.191924 0.029272
-0.692272 0.136256 0.632506
-0.365009 0.091344 0.126166
0.424201 0.082554 -0.541778
-0.284663 0.156049 -0.143470
-0.624219 0.138256 0.553359
-0.925661 0.031476 0.391693
0.202469 -0.013217 -0.140200
0.190998 -0.189395 -0.456170
-0.641290 0.192467 0.154311
-0.783745 0.199240 0.584874
-0.526885 0.178211 0.248993
-0.279555 0.119507 -0.617893
0.484694 0.102018 0.344103
0.281210 -0.102724 -0.618751
0.324527 -0.139559 -0.027163
-0.118319 0.058868 -0.320731
0.651248 -0.157623 0.024231
-0.286128 0.179056 -0.605847
-0.328277 0.198445 -0.277021
0.435224 0.078777 0.274373
0.591553 -0.143739 0.478538
-0.881090 0.170078 0.534569
-0.127876 -0.077457 -0.539219
0.407386 -0.174379 0.034152
-0.182470 -0.060479 -0.198145
-0.852024 -0.100372 0.302974
-0.373410 -0.189196 -0.103223
-0.067886 -0.040333 -0.508103
0.830899 -0.184930 0.472539
0.236158 0.087231 -0.117795
-0.817101 0.189610 0.473167
-0.108239 0.037904 -0.328795
-0.516694 -0.193814 -0.075014
0.906434 -0.033441 0.521423
-0.398604 0.198661 -0.145300
-0.775502 -0.126744 0.195140
-0.958992 -0.000492 0.494162
-0.351907 -0.154982 -0.010961
0.393519 -0.016505 -0.638180
-0.298656 0.193946 -0.282112
0.450987 0.150815 0.190796
0.514104 -0.126001 -0.310139
0.912302 0.149525 0.518379
0.844216 0.169528 0.433163
0.149998 0.026001 -0.244100
-0.740665 -0.104618 0.093784
0.732066 0.059632 0.611865
0.824092 0.144605 0.324759
-0.413894 0.138455 0.147450
0.423078 -0.196988 -0.223398
0.280215 -0.197697 -0.489465
0.683063 -0.154377 0.629093
0.075512 -0.102854 -0.445860
0.039231 -0.030181 -0.458940
0.707555 -0.196269 0.483667
-0.184202 0.150449 -0.322641
0.197168 0.028095 -0.575160
0.476155 0.198629 0.004807
0.749419 -0.080471 0.083206
0.180802 0.147330 -0.321643
-0.577149 0.189615 0.010589
-0.612464 -0.015524 -0.216237
0.131245 0.113300 -0.352990
0.335439 0.176378 -0.112476
-0.210159 0.179771 -0.368435
-0.534143 0.135212 -0.254240
-0.459902 -0.198573 -0.025519
-0.095653 0.057352 -0.363430
0.112511 0.073220 -0.531249
0.560868 -0.146910 0.412094
0.168816 0.150067 -0.560454
0.342445 0.030622 0.125494
0.658741 0.193556 0.415417
-0.631307 0.044772 -0.170196
0.213731 0.199931 -0.563343
0.791380 -0.187939 0.413207
0.613511 -0.199769 0.197964
0.530092 -0.198371 0.113334
0.219991 0.142540 -0.235143
-0.640644 0.063879 0.659284
-0.420584 0.182071 0.026647
0.620285 -0.197115 0.158390
-0.342038 -0.012042 0.129042
-0.689893 -0.142110 0.060458
0.183018 0.184838 -0.445222
0.683677 0.199753 0.375679
0.865233 0.161281 0.447278
0.771715 0.140275 0.214233
-0.603430 -0.193229 0.311475
0.820264 -0.082244 0.221507
0.764916 0.149540 0.594826
0.626562 -0.199976 0.250685
0.363676 0.173300 -0.045998
0.409380 -0.184194 -0.343958
-0.525455 0.129500 -0.281944
-0.025553 -0.006622 -0.486145
0.907199 -0.052253 0.521026
-0.263624 0.115332 -0.100845
0.288690 0.079688 -0.008992
0.182224 0.139755 -0.301931
0.862325 -0.151933 0.416066
-0.758072 0.116268 0.144118
0.111466 0.081673 -0.530707
0.700373 -0.199669 0.361325
-0.333487 -0.111052 0.040228
0.914018 -0.111335 0.437359
0.178195 0.192092 -0.499484
0.453941 0.063157 0.323346
0.907778 -0.035528 0.358710
-0.857921 -0.179164 0.497009
-0.426664 0.121788 -0.485940
0.546346 0.129365 0.420621
0.614699 -0.088578 -0.168315
0.468894 -0.036482 0.367114
-0.895708 -0.105175 0.393443
-0.523312 0.015878 -0.388057
-0.401799 -0.038166 0.237064
-0.363002 -0.176958 -0.466536
-0.607600 -0.197149 0.280531
-0.346393 -0.023538 0.135208
-0.435878 -0.170675 0.102813
0.343411 -0.080465 0.095771
-0.697676 0.034706 -0.046673
0.714299 -0.154736 0.137950
-0.379957 0.199991 -0.227358
-0.171738 -0.168952 -0.561969
-0.838382 -0.017915 0.219757
-0.834061 -0.112307 0.558962
-0.562887 -0.094693 0.503842
0.333096 0.174293 -0.534822
0.657501 -0.191571 0.428430
0.580305 0.001569 0.589182
0.896788 0.030766 0.335784
-0.230702 -0.199938 -0.508413
-0.508261 -0.179934 0.205558
-0.847881 -0.089896 0.551794
-0.324051 0.163737 -0.089786
-0.547000 -0.199206 0.129272
0.694423 0.033281 -0.053479
0.811022 0.027837 0.169489
0.274631 -0.132827 -0.615339
-0.130349 0.115131 -0.540502
-0.391580 0.115191 -0.564120
-0.907727 0.122493 0.520752
0.802602 -0.130126 0.253541
-0.454996 -0.165078 0.158465
0.830075 -0.178411 0.440065
-0.443931 -0.118010 0.242600
0.629489 0.168703 0.482953
-0.448202 0.089586 0.288495
0.484948 -0.172011 0.192597
-0.545862 0.126930 -0.247263
-0.487053 -0.157707 -0.292096
0.692508 0.152055 0.088976
0.171948 0.115315 -0.277567
0.528316 0.137299 -0.261256
0.932879 0.034259 0.406616
0.495468 -0.145380 -0.307041
-0.505412 -0.199844 0.027566
-0.312326 0.171576 -0.138625
0.574197 -0.051426 0.562815
-0.885616 -0.167372 0.505666
0.240726 -0.137543 -0.184520
-0.384152 -0.157191 -0.491915
-0.430421 -0.154714 0.141121
0.123948 -0.140449 -0.415763
0.900323 0.001831 0.337447
0.356588 0.122863 0.066256
0.633664 0.049656 -0.163074
-0.415513 0.190223 -0.028735
-0.396391 0.112880 -0.558327
0.546955 -0.039298 -0.335377
-0.821911 0.099388 0.243686
0.201675 -0.186434 -0.417905
0.653719 0.114616 -0.059606
0.780951 -0.190608 0.410108
0.640795 0.182681 0.448259
-0.282363 -0.167762 -0.619349
0.163565 -0.058854 -0.557730
0.572987 0.084111 0.534806
0.393234 -0.191186 -0.333367
0.377497 0.041578 0.188703
0.236871 0.196527 -0.426707
-0.389477 -0.073164 0.191181
-0.111626 0.068050 -0.530791
0.225012 0.196410 -0.448233
0.355588 -0.133572 -0.601716
-0.522314 -0.186785 -0.112254
0.058485 -0.019871 -0.503227
-0.283107 -0.042226 -0.619735
-0.045057 -0.087701 -0.486722
0.340158 -0.061591 -0.649327
-0.081491 -0.086200 -0.515159
-0.460139 0.088642 0.312530
0.444126 0.189683 0.029986
0.124651 0.081038 -0.326535
0.520886 0.199765 0.019199
0.663966 0.066587 -0.093473
0.468912 0.184513 0.107662
-0.372709 0.182731 -0.421978
-0.699814 0.066451 -0.024465
0.798749 -0.013922 0.577278
-0.330460 -0.166481 -0.086148
-0.382298 -0.169149 0.004851
0.435340 -0.154449 0.151305
0.233199 -0.199942 -0.524858
-0.444761 0.075520 0.295717
0.800408 -0.185005 0.414149
-0.370946 0.011514 0.184842
0.686237 0.193441 0.469386
-0.358270 0.189682 -0.410964
-0.823949 -0.080748 0.564207
-0.556921 0.200000 0.110378
0.179434 0.067941 -0.565961
-0.689623 0.164139 0.613769
0.303822 -0.133772 -0.630480
0.296265 -0.034006 0.035256
-0.421917 0.141552 -0.457403
-0.480055 -0.014795 -0.471636
0.766053 0.137735 0.594236
0.765480 0.186057 0.352487
-0.835591 0.060934 0.233280
-0.633384 -0.168025 0.021556
0.644237 0.146258 0.574354
0.495290 0.036006 0.418194
-0.257205 0.133538 -0.144731
-0.401749 -0.004217 -0.623698
0.383495 0.037866 -0.651131
0.378370 -0.171938 -0.012614
0.783706 0.163940 0.585080
0.520146 0.156489 -0.231652
0.201855 0.197500 -0.506338
0.265858 0.190458 -0.318845
0.689661 0.190853 0.235793
0.303163 0.168206 -0.614483
-0.262667 -0.039748 -0.031858
0.682240 -0.189806 0.214442
0.416278 -0.172019 0.060177
0.522585 -0.140222 -0.266187
0.487638 -0.108044 0.341702
0.470553 -0.036377 0.370354
-0.271459 -0.198876 -0.394636
0.066621 -0.043532 -0.411573
0.292095 -0.034252 0.027126
-0.543035 0.170414 -0.144393
-0.492455 -0.046889 -0.436813
0.366054 -0.116463 -0.611370
-0.273349 0.063270 -0.024906
0.604575 0.198800 0.249127
0.591518 0.197893 0.239325
0.492369 -0.015842 -0.447719
0.808776 -0.191378 0.469144
0.387337 -0.146682 -0.512490
0.371326 0.161600 -0.504001
-0.449427 -0.074262 -0.500820
0.559835 -0.199941 0.125869
0.259048 0.196869 -0.541102
0.698728 0.149109 0.093649
-0.220277 -0.146851 -0.244408
0.613497 0.105572 0.587743
-0.653391 0.196099 0.381100
-0.610895 -0.197110 0.140226
-0.327007 0.151430 -0.049770
-0.772775 -0.190886 0.396265
0.698737 0.184842 0.217273
0.339727 -0.058306 -0.649103
-0.444603 -0.193475 -0.216853
-0.366917 0.196385 -0.174362
-0.756233 -0.166014 0.251770
-0.467348 -0.137741 -0.377888
0.623930 0.189529 0.100227
-0.603872 -0.196039 0.114240
0.205800 0.120879 -0.221144
0.822703 -0.003774 0.564853
0.734911 -0.192807 0.337448
-0.151631 0.032843 -0.243162
0.058878 -0.006303 -0.416304
-0.290935 0.153131 -0.123655
-0.032398 -0.023876 -0.470246
0.389526 0.114111 0.143744
0.827579 0.034758 0.203793
0.888330 -0.080764 0.351299
-0.812350 0.195962 0.515353
0.443873 -0.136752 0.208754
-0.364829 -0.199913 -0.247758
0.049186 0.009221 -0.435234
-0.426820 -0.118345 -0.491251
0.586277 -0.183933 -0.004244
-0.742764 0.166823 0.606316
-0.381287 -0.159517 -0.490888
-0.431696 -0.142233 -0.437061
0.654638 -0.088106 -0.091819
-0.459240 -0.128722 -0.411033
-0.709592 -0.186601 0.247768
-0.165348 0.054055 -0.226985
-0.362439 -0.148560 -0.556029
0.690758 0.170771 0.141676
-0.198643 -0.185246 -0.575925
0.243968 -0.114559 -0.599434
-0.703153 -0.050518 -0.028619
-0.250654 0.089661 -0.602902
-0.863664 -0.135228 0.381091
0.446015 -0.095869 0.277137
0.278446 -0.192090 -0.306195
0.060471 -0.110524 -0.485369
0.519613 0.141742 0.344262
-0.686488 0.136240 0.041536
0.459688 0.107757 -0.443652
0.414401 0.188632 -0.020674
-0.462117 -0.122594 -0.416237
-0.424960 -0.192758 -0.260503
0.626620 0.197560 0.176476
0.502703 -0.175778 0.212419
0.778537 -0.048158 0.115413
0.449067 0.121591 0.246683
-0.338147 0.123760 0.029177
-0.140181 0.158426 -0.545601
0.505511 -0.159502 0.272684
-0.538417 0.181824 -0.106863
0.676497 0.199827 0.358328
0.472010 -0.166082 -0.295976
0.707200 -0.193631 0.290727
0.587627 0.097345 -0.210508
0.407990 0.135772 -0.496336
0.350954 0.195898 -0.374878
0.447884 -0.040182 -0.525992
0.128919 -0.035582 -0.287981
0.778190 -0.196699 0.457739
0.168810 0.178471 -0.442467
0.084919 0.048130 -0.378647
0.075441 0.128746 -0.486124
0.615070 0.180203 0.410274
0.372503 0.145558 -0.543701
0.214647 -0.052080 -0.130759
0.232307 0.009240 -0.593386
-0.748390 -0.113337 0.120988
-0.430451 0.093203 -0.518408
0.429734 0.154786 -0.410544
-0.073956 0.069805 -0.511251
0.467454 -0.015815 -0.495760
-0.619877 -0.171689 0.453910
0.926175 -0.130117 0.511184
-0.571009 -0.168318 0.371513
0.680528 0.121576 0.003144
0.611110 -0.193527 0.323831
0.576565 -0.193527 0.037997
0.307815 0.165108 -0.615658
-0.762631 0.154377 0.230180
-0.572512 -0.153482 0.418299
-0.309248 -0.020317 0.064365
0.279276 -0.113048 -0.067219
0.557515 0.100794 0.486062
0.449326 0.188718 -0.241524
0.330743 0.167085 -0.565051
-0.400117 -0.121849 -0.537017
0.466301 -0.170813 -0.290914
-0.589584 -0.165750 0.415795
0.620546 -0.154564 -0.043258
-0.686709 -0.116300 0.006584
-0.580908 0.184455 0.323887
-0.249311 -0.027395 -0.602206
-0.045839 -0.047031 -0.453407
-0.361421 -0.198483 -0.213770
0.327825 0.199623 -0.358597
0.377737 -0.157287 0.032581
0.663171 0.163424 0.564987
0.459728 -0.165852 0.165114
0.694787 0.197898 0.438342
-0.869402 -0.178232 0.515120
-0.422715 -0.041425 0.275952
0.058224 0.079362 -0.453011
-0.808314 -0.184344 0.425937
-0.495748 0.190868 0.121562
0.533656 -0.048470 0.486309
-0.762216 -0.199055 0.463370
-0.266351 -0.198444 -0.504533
-0.806345 -0.038889 0.164536
0.423946 0.021756 -0.578422
-0.141194 -0.127178 -0.356520
-0.282864 -0.175865 -0.211771
0.503721 -0.170165 -0.221067
-0.134134 0.083017 -0.310186
0.457871 0.199979 -0.087566
0.722102 0.199775 0.448784
0.259761 0.176721 -0.259780
0.477506 -0.134289 -0.365260
-0.519430 -0.038627 0.463654
-0.231812 0.163457 -0.593129
-0.349670 0.092844 0.094904
0.081412 -0.109922 -0.444131
0.478831 -0.025087 -0.471754
-0.210031 -0.197832 -0.495266
-0.543683 0.051762 0.503792
-0.603920 -0.072761 0.604958
-0.232243 -0.108892 -0.593353
-0.501530 -0.154244 -0.273557
-0.484116 0.193914 0.075722
0.112007 0.012161 -0.314462
-0.553472 0.196006 0.189466
0.479339 0.146997 0.254707
-0.871029 -0.153373 0.436539
0.415900 0.178566 -0.357781
-0.156733 -0.050747 -0.241643
0.181377 -0.050058 -0.566969
0.631414 0.200000 0.253677
0.372903 0.017707 0.187631
-0.491247 0.109830 0.346141
0.480517 0.100204 -0.413483
-0.190335 -0.188363 -0.571616
-0.531877 0.192571 0.178745
0.818935 0.178398 0.418531
0.441590 -0.194547 -0.213351
-0.493354 -0.113433 0.344938
0.640379 -0.043009 0.659422
-0.658698 0.023717 -0.125345
-0.520450 -0.192357 -0.079509
-0.484102 0.166826 0.208936
0.910741 -0.088973 0.402864
-0.640650 0.161435 0.014751
0.308514 -0.043162 0.054961
-0.348693 -0.156306 -0.562702
-0.616696 -0.165404 -0.019209
-0.583841 -0.175706 0.369135
0.196791 0.188134 -0.437178
-0.880413 0.171526 0.510032
-0.445375 0.073088 0.299013
0.346388 0.191909 -0.173852
0.686836 0.178467 0.556273
-0.146964 0.076504 -0.279297
-0.867567 0.039209 0.541583
-0.676857 0.013529 0.640501
0.457742 0.148858 0.208628
0.345607 -0.199017 -0.254647
0.818452 0.129670 0.283253
0.496477 -0.197155 0.066219
0.419988 -0.198556 -0.206366
0.271634 -0.129375 -0.109027
-0.265277 -0.166634 -0.610487
0.856369 0.031168 0.547391
-0.735316 0.004396 0.610180
0.494811 -0.197548 0.057809
-0.398648 -0.048016 -0.617070
0.247305 -0.098890 -0.601165
-0.143313 -0.185783 -0.547226
-0.534922 -0.192860 -0.047700
0.708682 0.083311 0.007435
0.161563 -0.175220 -0.443066
-0.616007 0.094203 -0.159515
0.351341 -0.132452 0.038857
-0.832486 0.129250 0.309534
-0.458758 0.099754 0.296973
-0.213334 0.052379 -0.133466
-0.181043 -0.011822 -0.181319
-0.805402 -0.155991 0.573827
0.655149 0.172881 0.080717
0.565421 0.154777 -0.148971
-0.487546 -0.196742 0.054076
0.868604 0.167324 0.472705
0.493511 -0.113496 -0.370168
-0.254344 0.144068 -0.604816
0.590943 -0.099684 -0.201240
-0.330046 0.118660 0.022000
-0.522037 0.196003 0.128897
-0.741657 -0.014380 0.032655
-0.321461 0.082430 0.051549
-0.662484 0.047235 -0.108823
0.510992 0.136929 -0.295413
-0.662664 0.182553 0.491042
0.551082 0.140314 0.408017
0.273919 -0.180967 -0.250930
0.908138 0.099723 0.410345
-0.515346 0.039778 0.455281
0.330673 -0.121564 0.018471
0.566731 0.169604 -0.101549
-0.642047 0.193704 0.165731
0.704516 -0.175335 0.185328
-0.763451 -0.023773 0.076627
-0.348322 -0.199096 -0.333674
-0.054646 0.062282 -0.445846
0.918958 -0.044031 0.384014
0.606196 -0.180501 0.017664
-0.540076 0.163500 0.327434
0.543420 -0.048870 0.504916
0.801159 -0.187056 0.426890
-0.806647 -0.145975 0.294271
0.254189 -0.012647 -0.604736
0.842518 -0.141258 0.554575
0.810059 -0.009142 0.163858
0.068978 -0.072247 -0.425946
0.215168 0.077059 -0.148306
0.857204 0.161414 0.432195
-0.736345 0.188287 0.309196
0.341103 -0.048212 -0.649817
-0.319546 0.130230 -0.018240
0.036051 0.019088 -0.462080
-0.776890 0.180389 0.588616
0.075672 0.096895 -0.438091
0.524858 -0.078752 0.447206
-0.613571 -0.166877 0.458378
0.428231 -0.101396 -0.512777
-0.501308 -0.199892 0.016807
0.821304 0.122787 0.276582
-0.269968 0.038108 -0.017075
0.537938 0.166304 0.314434
0.158531 0.114867 -0.302748
-0.853237 0.138966 0.368633
0.911360 0.136227 0.518868
0.921038 -0.137120 0.495526
-0.630084 0.195120 0.155428
0.659254 0.054265 0.649632
0.517736 -0.008002 -0.399830
0.280333 0.008453 0.010477
-0.671251 0.089470 -0.058322
0.389855 0.131943 0.114083
0.917417 -0.111952 0.444813
0.917087 -0.056177 0.387237
0.514737 -0.190560 0.160285
0.400172 0.090424 0.194979
-0.425745 0.146211 -0.439540
-0.736317 -0.070778 0.049343
0.656054 -0.164544 0.053945
0.808455 -0.150318 0.572243
-0.587651 0.150252 0.455675
-0.801396 0.148008 0.288933
-0.439106 -0.117551 0.234025
-0.631332 0.092386 0.638453
-0.418261 0.195686 -0.247324
0.831135 -0.116184 0.284848
0.613270 0.018782 -0.214074
0.610975 -0.189712 0.076435
-0.904448 0.045950 0.522453
0.571398 -0.023455 -0.293724
0.945101 -0.014130 0.424845
-0.220889 -0.104302 -0.587464
0.287164 0.193623 -0.301525
0.445617 -0.112261 0.254642
0.902732 -0.142468 0.471589
0.650916 -0.166426 0.531851
0.259675 0.068018 -0.054853
-0.559499 0.095821 0.495984
-0.107516 0.027131 -0.326331
0.173640 0.006805 -0.195083
0.620458 -0.069973 0.639157
0.618735 -0.184922 0.063454
-0.728590 -0.135527 0.121272
-0.414052 0.069626 -0.572903
0.893183 0.081984 0.528296
0.875639 0.146457 0.428407
-0.545808 -0.017459 -0.344399
0.586506 -0.082414 0.562558
0.461827 0.138494 -0.386972
-0.294789 0.199091 -0.354278
0.363458 -0.023551 -0.661412
-0.773325 -0.152781 0.246642
0.775180 -0.138443 0.589503
-0.025782 0.027730 -0.484091
-0.378257 0.192829 -0.349985
0.671171 0.160712 0.588557
0.857998 0.147642 0.397187
0.265956 0.131543 -0.124025
-0.248766 0.063206 -0.072255
0.335590 0.101804 0.056915
-0.430463 0.198353 -0.078431
-0.440908 -0.151882 0.168682
0.301782 -0.016753 0.050692
-0.498770 0.198468 0.051296
-0.072540 0.029046 -0.394352
-0.919955 0.010127 0.375835
-0.159342 -0.159667 -0.395187
-0.184620 0.101474 -0.233724
-0.341700 0.141816 -0.611481
0.808490 0.008863 0.160807
-0.455530 0.106358 -0.453594
0.303394 0.176629 -0.175281
0.122575 0.113964 -0.370702
-0.236765 -0.119608 -0.159370
-0.561368 0.089602 -0.270028
0.205704 -0.175186 -0.579587
0.450227 0.127917 -0.429869
0.154695 0.128842 -0.553129
0.225943 -0.006915 -0.590085
-0.488455 0.101088 0.352545
-0.394513 0.193511 -0.313121
-0.105175 0.126727 -0.527444
-0.545568 -0.045046 0.511064
0.736603 -0.020637 0.024104
-0.630931 -0.101931 -0.121297
0.340246 -0.179880 -0.118121
-0.517186 -0.191447 0.158806
-0.410910 -0.020014 -0.603952
0.610073 -0.094702 0.594806
-0.714849 0.124321 0.620795
0.127970 0.090207 -0.329574
0.731413 0.197233 0.518155
-0.730708 -0.199626 0.418252
0.913711 0.089978 0.409682
-0.624023 0.129224 -0.092419
-0.355558 -0.090777 0.108575
-0.144468 0.178710 -0.490430
0.090757 -0.117175 -0.436983
0.151401 -0.147025 -0.377607
-0.158497 -0.075103 -0.255816
-0.525413 0.126570 -0.287328
-0.869499 0.167585 0.475300
0.387368 -0.127576 0.117377
0.802423 -0.146827 0.288114
0.298197 -0.198195 -0.330837
0.597251 -0.133859 -0.135241
-0.895834 -0.066452 0.526921
0.813275 0.198840 0.557262
0.728619 0.038560 0.613653
-0.896380 0.092536 0.379117
0.078085 -0.025313 -0.513393
-0.768658 0.149509 0.229443
0.666614 -0.086459 -0.070465
0.393566 0.183843 -0.034162
-0.521339 -0.139132 -0.270900
0.843661 -0.051543 0.242861
-0.720160 0.020588 -0.007608
-0.655218 0.198318 0.243027
-0.430156 0.142791 0.169487
-0.403769 0.174516 -0.397705
0.361801 -0.138986 0.045907
-0.301176 -0.134014 -0.629107
-0.784792 0.140354 0.239616
-0.495191 0.174827 -0.220237
0.837284 0.086046 0.258149
0.274977 -0.115144 -0.078671
-0.677585 0.081023 0.640124
-0.779038 -0.004784 0.103723
0.439828 0.194913 -0.018665
0.538314 0.189625 -0.064219
-0.140022 -0.078162 -0.294192
0.489092 -0.198936 -0.065768
0.566625 0.141959 -0.177526
0.776059 -0.036670 0.105218
-0.628730 -0.194143 0.352536
0.456072 0.071213 0.321212
0.138156 -0.021742 -0.265817
0.266899 -0.197563 -0.517016
0.902295 -0.162863 0.523484
-0.440678 0.145339 0.184025
-0.389557 -0.115698 0.141384
0.318220 0.123693 -0.009129
-0.609202 -0.179015 0.404227
-0.420397 -0.128023 0.180248
0.636744 -0.097607 0.642764
-0.058915 0.105718 -0.481660
0.506154 -0.188991 0.153990
0.161177 -0.014962 -0.220078
-0.688461 -0.028444 -0.066614
-0.340205 -0.193280 -0.196427
0.624807 -0.152899 -0.039387
0.836650 -0.125346 0.310564
-0.198264 -0.137661 -0.266629
-0.506838 0.032363 -0.415464
-0.353482 -0.079918 0.115706
-0.633061 0.145474 0.554619
-0.214870 -0.144733 -0.584341
-0.928862 0.121698 0.509789
-0.254406 -0.197580 -0.406121
0.419956 -0.108482 -0.519243
-0.825276 0.016723 0.194264
0.312683 0.171697 -0.583899
-0.222354 -0.098262 -0.588223
0.388924 -0.165779 -0.457137
-0.773276 -0.109607 0.590490
0.758246 0.185874 0.337535
0.446413 -0.059060 0.311688
-0.598651 0.143129 -0.113200
0.443216 -0.084935 -0.502734
-0.366874 0.090786 -0.643701
0.869532 0.085333 0.319588
0.561282 -0.058925 -0.296944
0.683874 0.086722 0.636861
-0.331501 0.017467 -0.644836
-0.328256 0.097507 -0.643153
-0.155660 0.155921 -0.391835
0.405535 0.113617 0.175351
-0.667418 0.124045 -0.017960
-0.211419 -0.196260 -0.472761
0.223026 0.199425 -0.566904
-0.666575 -0.005208 -0.113077
-0.608263 0.102681 -0.164030
-0.470195 0.160207 0.202560
-0.520227 0.043087 0.463168
0.064352 -0.036214 -0.412714
-0.571777 -0.043640 -0.285524
0.891901 0.027355 0.528961
0.430513 -0.159803 -0.395161
0.743605 -0.030177 0.040259
-0.437501 0.098874 -0.498073
0.772434 -0.072477 0.120391
0.517183 -0.197207 0.105468
0.364442 0.090126 -0.649117
-0.544366 0.199889 0.071073
-0.706448 -0.145231 0.625153
-0.468564 -0.062045 0.352335
0.503085 0.198477 0.059453
0.754227 0.195292 0.583833
-0.166030 -0.127444 -0.309113
0.196448 0.081979 -0.189027
0.447604 -0.161727 0.154530
-0.471579 -0.185446 0.107875
0.293039 -0.102281 -0.025735
0.418065 0.192697 -0.274271
0.664290 0.128853 -0.015466
0.623488 0.186023 0.078547
-0.149763 0.094521 -0.550572
-0.203047 -0.199590 -0.544702
-0.564250 -0.116259 -0.229575
0.416037 -0.072496 0.242954
-0.567713 0.094358 0.513539
-0.682117 0.157542 0.083520
0.646550 -0.196461 0.363888
-0.601152 0.199953 0.185581
-0.875447 0.015021 0.290697
-0.282597 -0.199983 -0.424819
-0.735666 0.166546 0.213849
0.792117 0.081871 0.166875
-0.481104 -0.120538 -0.383049
-0.377015 0.169905 -0.466261
0.619301 -0.156487 0.500503
-0.328993 -0.163404 -0.079230
0.271904 -0.013226 -0.006336
0.291770 0.176213 -0.196001
0.833555 -0.047286 0.221020
-0.738458 0.174917 0.249118
0.621347 -0.087412 -0.156737
0.197384 0.101268 -0.575272
-0.399329 -0.198240 -0.251589
0.352276 0.144871 0.014664
0.706767 0.157062 0.624987
-0.165937 -0.195125 -0.558961
0.582895 0.077110 -0.240973
0.515328 -0.191546 -0.095401
0.376270 -0.184683 -0.405258
-0.177980 0.196739 -0.542722
0.466796 -0.199883 -0.049130
0.860795 -0.125761 0.357842
0.706810 -0.013036 0.624965
0.545017 0.011787 -0.346827
0.507662 0.018269 -0.417785
-0.653269 -0.196415 0.377372
0.760965 0.174205 0.289747
-0.756712 0.199227 0.533090
-0.077583 -0.143191 -0.513133
-0.537967 -0.186111 -0.085850
-0.932836 -0.112573 0.475455
-0.285757 0.055828 0.004057
0.109187 0.063462 -0.341542
0.354573 0.093833 0.103224
0.472763 0.000128 -0.486884
-0.721465 -0.121824 0.082482
0.324230 -0.186882 -0.493599
-0.501857 0.198479 -0.049897
-0.527118 0.121212 -0.293227
0.828291 0.181088 0.448549
0.805249 0.045891 0.573906
-0.246189 0.068707 -0.600586
-0.031615 0.028729 -0.473154
-0.188028 0.028895 -0.171651
0.352440 0.087842 0.105745
-0.565221 0.195451 0.033630
-0.812075 0.025026 0.570365
0.764261 0.143860 0.595166
-0.876359 0.125444 0.387293
0.167226 0.186629 -0.485414
0.586073 0.068865 0.573753
-0.697152 -0.194061 0.485171
-0.582207 -0.067666 0.567246
-0.285976 0.014318 -0.621223
0.559042 0.166649 0.353994
-0.224821 0.180212 -0.342146
-0.085321 -0.118679 -0.517146
0.617312 0.008372 0.660163
-0.230777 0.199352 -0.484108
0.367781 -0.171637 -0.477892
0.392261 -0.165470 -0.451695
0.535234 0.097548 -0.311272
-0.031543 -0.023850 -0.489252
0.373022 0.186762 -0.089400
0.514819 -0.154421 0.304612
0.510512 -0.094032 -0.363103
0.501673 -0.080990 -0.393937
-0.690688 -0.199605 0.394934
0.801098 -0.143590 0.576059
0.611650 -0.199957 0.206196
-0.493607 0.166394 -0.253325
-0.797393 0.081906 0.577981
0.526884 0.095745 -0.329532
-0.041352 -0.082114 -0.488175
-0.170206 0.054594 -0.217950
-0.253310 0.182980 -0.300257
-0.442604 -0.148659 0.179924
-0.474264 0.177593 0.150156
-0.577421 0.060263 -0.264921
-0.677062 0.016387 -0.091545
-0.474274 0.121295 0.295772
-0.463222 0.165711 -0.314114
0.749001 -0.170478 0.603081
0.626252 -0.087276 0.634240
-0.346321 -0.068981 0.111433
-0.868401 -0.045901 0.287479
0.559983 -0.186429 -0.041636
0.648065 0.114298 0.641912
-0.883222 0.144047 0.533463
0.152813 0.005215 -0.235134
-0.521427 0.025904 0.472024
0.223942 -0.187724 -0.382389
0.850020 -0.064679 0.263790
0.395149 0.185186 -0.038088
-0.411656 0.136662 -0.487469
0.367099 -0.034685 -0.663301
-0.920564 -0.114617 0.454859
-0.393672 -0.147365 -0.498667
0.517455 0.197970 0.095381
-0.685935 0.168277 0.123720
0.660452 0.176411 0.104690
-0.372186 0.083329 0.148455
-0.138683 -0.067340 -0.287590
0.695595 -0.188746 0.520748
-0.822158 0.165189 0.376226
-0.251335 0.198767 -0.431258
-0.346506 -0.157417 -0.563868
0.419231 -0.166844 -0.395247
0.101255 -0.103310 -0.396825
-0.223030 -0.098476 -0.155914
-0.923669 0.076364 0.415348
-0.665647 -0.152656 0.038724
0.615250 -0.122435 0.565663
0.553237 -0.199868 0.086873
0.460860 0.172345 0.144930
-0.663657 -0.077830 -0.084610
0.545367 -0.071997 -0.317786
0.416450 0.004100 -0.595362
0.545982 -0.016185 0.521597
-0.611431 0.191327 0.088304
0.958681 -0.070253 0.494323
0.441165 0.078854 -0.512616
0.755403 0.194312 0.389550
-0.540399 0.131864 0.404475
-0.884974 -0.139389 0.532554
0.413863 -0.162932 -0.417979
-0.266191 0.187190 -0.603725
-0.259736 -0.067898 -0.054641
-0.337448 -0.062746 0.099050
0.758477 0.152623 0.217613
0.939004 -0.070189 0.504529
0.434550 -0.028112 -0.556244
-0.565752 -0.136063 -0.191594
0.808723 0.178757 0.400388
-0.752380 -0.196491 0.567587
-0.402351 -0.037077 -0.615105
0.764071 -0.041204 0.084060
0.220705 -0.065032 -0.127698
0.492112 -0.196550 -0.095542
0.372703 0.083077 -0.640546
0.634050 -0.188439 0.403984
0.414669 -0.191956 -0.286464
-0.612769 -0.176383 0.012645
0.232130 -0.014607 -0.083226
0.327692 -0.034161 0.095788
-0.098903 -0.073935 -0.369691
0.945170 -0.109905 0.501331
0.135169 0.146776 -0.543002
0.715282 0.177408 0.214505
0.262208 0.154252 -0.181963
0.520999 0.036668 -0.386525
-0.750791 -0.004613 0.049256
0.412770 -0.180378 0.019459
0.592131 0.151995 0.459945
0.203475 -0.017801 -0.139036
0.969976 -0.015496 0.488465
0.829170 -0.191920 0.512407
-0.210623 -0.180770 -0.372058
0.451558 0.182849 0.082598
0.927083 0.001479 0.389032
-0.871578 0.076682 0.315206
0.474821 0.198513 0.004332
0.358540 0.108538 -0.637571
-0.733896 0.029332 0.021263
0.204446 0.179583 -0.378616
0.743778 -0.009060 0.605790
-0.310987 0.122268 -0.020660
-0.196297 -0.176156 -0.379837
-0.858413 0.109046 0.326873
-0.310428 -0.189122 -0.224182
-0.495519 -0.102880 -0.381136
-0.836417 -0.106755 0.557740
0.265299 0.005804 -0.018302
-0.392398 0.088238 0.182362
-0.162427 0.011361 -0.217152
-0.453055 0.192926 -0.205015
-0.890031 0.031268 0.322927
-0.711566 -0.129400 0.622498
0.384224 -0.193090 -0.336406
0.204551 -0.136189 -0.251504
-0.429349 -0.197024 -0.061561
0.453652 0.083353 -0.484207
-0.287041 -0.098612 -0.032671
-0.647444 -0.184254 0.115328
-0.466649 -0.028833 0.365535
0.672014 -0.192024 0.210188
0.342314 0.145053 -0.004958
0.433213 -0.080493 0.268878
0.296724 0.053928 0.026378
0.289596 -0.184391 -0.573880
-0.541699 0.187677 0.230510
0.840782 0.134119 0.555476
-0.056120 -0.046894 -0.433513
0.825762 -0.193120 0.563266
-0.503276 -0.175757 -0.200975
0.474755 0.057497 -0.464705
0.864499 0.122041 0.543174
-0.745502 0.077479 0.072861
0.471697 -0.062193 0.358270
-0.479223 -0.116127 0.313593
-0.432833 -0.179949 0.060073
0.492666 0.171454 -0.237783
0.223404 0.127382 -0.198389
0.683163 0.166611 0.593420
0.309779 0.033343 0.061557
-0.423582 0.052147 0.272017
-0.703283 0.192983 0.505971
-0.223643 -0.008022 -0.588892
-0.822769 0.187621 0.471836
-0.321537 -0.055077 -0.639668
0.964161 -0.033236 0.466544
-0.639604 -0.178013 0.467148
-0.425043 0.152278 0.137088
-0.451462 0.199367 -0.059044
-0.368022 0.196298 -0.171257
0.406102 0.157855 -0.447753
-0.547270 -0.020133 0.523300
0.384966 -0.025327 -0.652655
-0.402665 0.067743 0.221039
0.505642 -0.190437 0.143588
0.549890 -0.199605 0.068884
0.758476 0.090945 0.111463
0.632772 -0.156232 -0.015214
-0.619250 -0.195508 0.321456
0.296598 0.192137 -0.512749
0.584192 -0.124796 -0.177118
-0.759004 -0.116738 0.146646
0.410947 0.145729 -0.469188
0.479824 -0.176331 0.166081
-0.688798 0.188352 0.217922
-0.786815 0.049549 0.132133
-0.450303 -0.113742 0.261474
-0.164887 -0.130026 -0.316033
-0.170909 0.162420 -0.381005
-0.410739 -0.176531 0.032073
-0.180985 0.048173 -0.566766
-0.510078 -0.023785 0.450719
-0.112046 -0.122267 -0.404205
0.316897 0.188428 -0.207401
-0.450051 -0.169250 0.135128
-0.873917 -0.047173 0.298775
0.485742 0.168966 0.204915
-0.764080 0.131981 0.182767
0.423534 -0.015653 -0.580462
-0.364398 0.048750 -0.661900
0.761000 -0.018372 0.070659
0.237319 -0.197657 -0.572733
-0.112970 -0.052293 -0.531487
0.196751 -0.119344 -0.574944
0.836622 -0.109855 0.286010
0.873982 0.003738 0.538255
0.701255 0.024864 -0.042994
0.779043 -0.022268 0.106309
-0.427405 -0.151996 -0.422279
0.243951 0.070158 -0.086880
-0.489465 0.078770 0.378952
0.965610 -0.009734 0.463813
0.207830 -0.195284 -0.469516
-0.266511 -0.127916 -0.116241
0.300537 0.187149 -0.537745
-0.210552 -0.171262 -0.333706
0.481515 -0.049982 -0.456227
-0.394418 0.057612 -0.619516
-0.364807 -0.198867 -0.306814
0.319362 -0.199508 -0.317802
0.599149 -0.159803 0.452345
-0.853727 0.144972 0.382728
0.353658 0.109317 -0.645885
-0.420424 0.187897 -0.004605
0.506720 0.148872 -0.277110
0.674501 0.170126 0.564808
-0.760687 0.147315 0.208799
-0.726270 -0.126494 0.099778
-0.221371 -0.198788 -0.584934
0.817812 -0.074600 0.209700
0.145952 -0.115802 -0.328434
-0.072956 -0.095210 -0.510733
-0.855461 0.048162 0.547862
-0.344872 0.110965 0.062306
0.806936 0.126775 0.255798
0.525979 -0.196193 0.134436
0.484049 0.162213 -0.284842
0.564645 0.059365 -0.290165
0.684819 0.114142 -0.000364
0.503067 0.191477 -0.119539
-0.272170 -0.117729 -0.614062
0.592080 -0.194326 0.280255
0.360763 -0.197414 -0.338069
0.496164 -0.059880 -0.421842
0.153372 0.134330 -0.552443
-0.532979 -0.046724 -0.358770
0.358587 0.158966 -0.009046
-0.802958 0.199623 0.557430
-0.709660 -0.199990 0.408582
0.595922 -0.141216 -0.122661
-0.125422 0.052410 -0.537946
0.265013 -0.191360 -0.579336
0.195866 0.017348 -0.153620
0.299560 -0.133631 -0.063255
0.060282 0.047988 -0.426070
-0.325398 -0.150532 -0.050628
-0.664084 -0.137639 0.001197
-0.484889 -0.174284 -0.242210
0.732467 0.110546 0.086194
0.661141 0.078762 0.648653
-0.063903 -0.011051 -0.407064
0.040450 -0.082985 -0.490772
0.694668 -0.081571 0.631263
-0.486811 -0.052082 0.393958
0.606265 0.199580 0.232999
-0.410506 0.193485 -0.062573
-0.592846 -0.147797 -0.113643
0.647930 -0.002978 -0.149123
-0.864864 0.117900 0.352566
-0.127275 -0.038233 -0.538907
-0.703482 0.194979 0.489025
0.898128 -0.158151 0.501676
-0.637151 -0.071287 0.661096
0.335349 -0.162043 -0.572036
-0.377642 -0.131687 -0.562825
0.618896 -0.112106 -0.130494
0.384401 0.059690 -0.637444
-0.692295 0.072081 -0.034445
-0.526167 -0.154543 -0.225271
-0.526550 0.193780 -0.056300
-0.564031 0.104720 -0.246621
0.591134 0.094772 -0.206807
0.349915 -0.189003 -0.431409
-0.339421 0.102029 0.064010
-0.828411 -0.040202 0.207654
-0.446229 -0.172931 -0.321881
0.490987 0.101033 -0.392250
0.516928 -0.192027 -0.088789
0.387727 -0.168859 0.016314
-0.377474 0.195793 -0.324851
0.141144 -0.018263 -0.546101
-0.206984 0.199311 -0.528886
0.088346 -0.119287 -0.444992
-0.648425 0.110067 0.648831
0.857589 -0.056481 0.272721
0.276074 0.185522 -0.269457
-0.778570 0.003772 0.102772
-0.616993 0.188575 0.080847
0.583882 0.192642 0.044985
-0.947571 -0.016853 0.500086
-0.437990 -0.199839 -0.136961
-0.386444 -0.159266 0.043805
0.681948 -0.190583 0.219066
-0.749536 0.199517 0.450914
0.605026 0.198621 0.151560
0.429312 -0.104959 0.233468
-0.741673 -0.044298 0.042350
0.854116 0.130939 0.548560
-0.673869 0.140432 0.025929
0.633753 0.199978 0.251442
0.242159 -0.063028 -0.598496
-0.108145 0.139952 -0.445168
-0.500300 -0.185352 -0.162593
0.509123 0.086493 0.409240
0.404314 -0.040180 0.241039
0.675113 0.181610 0.519549
-0.282845 0.176329 -0.213678
-0.884289 -0.149544 0.452459
-0.356852 0.173642 -0.060449
0.357397 0.176494 -0.070616
-0.762391 0.184344 0.337401
0.544215 -0.180427 0.272653
0.636146 -0.008689 -0.171479
-0.185604 -0.058989 -0.569162
-0.739852 -0.192905 0.347750
-0.418488 -0.063703 0.254599
-0.853120 0.163763 0.431441
-0.842776 0.016557 0.554441
0.407727 -0.094137 0.205348
0.429161 -0.171970 -0.358340
0.712819 -0.064364 -0.000961
0.193543 -0.095327 -0.208975
-0.921562 -0.132163 0.486732
0.546673 -0.196699 0.168582
0.529164 0.199997 0.053942
-0.397154 0.014659 0.234923
0.513255 -0.015208 0.458668
-0.654767 -0.055554 -0.118896
-0.403194 -0.025276 -0.617526
-0.734089 -0.158723 0.187031
0.828692 0.188284 0.487213
0.491078 0.161137 -0.274498
0.806480 0.168338 0.356333
-0.543881 -0.063335 -0.327417
0.709655 -0.142509 0.099436
-0.296076 0.142817 -0.626462
0.349715 0.187095 -0.136236
0.448707 0.196743 -0.020819
0.660423 0.146119 0.605881
0.073766 -0.099567 -0.445039
0.800687 0.044734 0.156340
-0.960083 -0.018608 0.454528
0.295011 0.179597 -0.204072
-0.757991 0.120158 0.598418
0.281019 0.085557 -0.029562
-0.606066 -0.124658 -0.135187
-0.218569 -0.062399 -0.129894
-0.457028 -0.001528 -0.517207
0.937530 -0.009741 0.409679
-0.176592 0.187712 -0.473602
0.916052 -0.057176 0.516434
0.173654 0.009604 -0.195308
0.354613 -0.146050 0.016456
0.334086 -0.186830 -0.164855
0.860401 0.126555 0.358484
0.276853 -0.130417 -0.616491
-0.136371 0.126105 -0.363911
-0.936828 -0.052170 0.505658
0.400441 -0.094663 -0.574580
-0.384323 0.165895 -0.465635
-0.524966 -0.108588 0.412906
0.779559 -0.199901 0.525325
-0.583395 0.180596 0.347423
0.132025 0.005173 -0.275209
-0.392353 0.194107 -0.102876
0.085470 0.019659 -0.366922
-0.247142 0.097750 -0.108541
-0.186580 -0.063945 -0.569668
-0.705085 -0.063907 -0.016207
0.574118 -0.144223 0.443835
-0.398740 -0.122764 -0.538138
0.633231 0.129251 -0.074618
-0.614838 0.039606 0.647171
0.223031 0.110946 -0.172571
-0.164988 0.029780 -0.216355
0.359964 0.199873 -0.254481
0.629877 -0.198864 0.204169
0.799245 0.103256 0.577020
-0.647827 0.198839 0.238265
0.215760 -0.164833 -0.301993
-0.552567 -0.194530 0.202242
0.194607 0.171902 -0.366765
0.518036 0.015528 -0.398288
0.438412 -0.199088 -0.160184
-0.079830 0.131492 -0.482769
0.407727 0.075824 0.224047
0.418070 -0.182104 0.021643
-0.663613 -0.047179 -0.106675
-0.237427 0.084668 -0.112698
-0.619571 -0.073418 -0.173519
-0.408191 -0.196999 -0.102036
0.556940 -0.102917 -0.262671
0.294652 -0.190430 -0.528655
0.679732 -0.173727 0.131303
0.680637 0.196724 0.269964
0.226329 -0.090324 -0.140071
-0.286343 -0.149762 -0.124025
0.779873 0.195077 0.443801
-0.427790 -0.114083 0.217557
-0.569400 0.005512 -0.300408
0.457996 0.198231 -0.138630
0.427632 -0.196911 -0.215569
-0.285790 0.154489 -0.137125
0.525957 -0.191385 0.176159
0.309405 0.198436 -0.421676
-0.595996 -0.133453 -0.138455
0.283370 -0.154882 -0.142830
0.733694 -0.040065 0.024982
0.465494 0.097292 -0.446037
0.677267 0.163262 0.592662
-0.613403 0.068717 -0.189293
0.511608 0.018781 0.454832
-0.179454 0.052766 -0.199015
-0.510030 0.054283 0.437404
-0.170426 -0.027396 -0.561289
0.281587 0.199999 -0.419465
0.527220 -0.036294 -0.374682
-0.695362 -0.103092 0.004427
0.895939 -0.083343 0.368489
-0.357501 0.185446 -0.437400
0.643656 -0.044445 0.657722
-0.902013 -0.154051 0.498046
0.352457 0.186150 -0.125625
0.707319 0.013128 -0.033736
0.659582 -0.042136 -0.116957
0.213399 0.042730 -0.583579
-0.595131 -0.115303 0.538327
0.744091 0.156160 0.199208
0.917045 -0.135761 0.485072
-0.908630 0.094900 0.520284
0.683903 -0.196825 0.431649
-0.813316 0.092789 0.219262
0.308729 -0.198024 -0.429672
-0.286375 -0.190317 -0.545378
0.388643 0.193054 -0.328171
0.318871 0.182204 -0.170087
0.791370 0.082614 0.166163
-0.103794 0.008380 -0.329874
-0.626773 -0.170767 0.018300
0.596224 -0.022626 -0.246068
-0.400361 0.196852 -0.268868
-0.173220 0.022399 -0.198374
0.620594 0.091372 -0.153892
-0.209879 -0.090282 -0.171741
0.638182 0.032206 0.660561
0.253012 0.199991 -0.472059
-0.052525 -0.094430 -0.479802
-0.642414 0.049053 -0.146538
-0.786404 -0.058795 0.583681
-0.460066 0.190003 -0.212606
-0.774671 0.056662 0.112975
-0.417244 0.023263 -0.590972
0.121976 -0.027476 -0.298556
0.761470 0.195461 0.412084
0.294180 -0.049083 0.024278
0.297357 -0.140603 -0.081770
0.475346 0.010712 0.386218
-0.911950 -0.010302 0.360422
-0.337314 0.126163 0.023394
0.372565 0.098866 -0.623277
-0.241608 -0.033579 -0.069960
0.219612 -0.199974 -0.533607
-0.648040 -0.051081 0.655448
0.223886 -0.195148 -0.589018
0.518503 -0.084778 0.429089
0.899267 0.158842 0.505822
-0.428667 0.075038 0.265113
0.254121 0.168837 -0.241197
0.617800 0.173924 0.441570
0.554513 -0.192811 0.220514
0.089635 -0.049601 -0.519384
0.600052 -0.153079 0.472441
-0.382636 -0.121329 -0.571586
-0.404011 0.132178 -0.511051
-0.838226 -0.170331 0.424425
0.524919 -0.161087 0.305487
-0.593222 0.143373 0.482576
0.663161 -0.183114 0.489255
0.753493 0.031873 0.059901
-0.835824 -0.068394 0.558047
-0.454525 -0.090964 -0.474519
0.566795 -0.174650 0.340434
-0.648010 -0.036800 -0.141600
0.206444 0.083674 -0.579971
0.303006 0.016515 0.053095
-0.927472 0.088084 0.434168
0.674048 0.172957 0.117438
0.485650 0.086104 -0.419722
0.419548 0.179497 0.036470
-0.183321 0.197048 -0.536185
-0.289318 0.153394 -0.127453
-0.428186 0.139876 -0.448920
-0.162418 -0.099258 -0.273737
-0.074884 0.108083 -0.454121
0.403143 -0.181306 -0.370102
-0.662201 -0.144897 0.013307
-0.053124 0.046431 -0.439049
-0.581174 0.193317 0.045151
-0.734727 0.191473 0.578024
0.826618 -0.107917 0.263991
0.472680 0.156925 -0.321969
-0.677941 0.189772 0.205933
0.177277 0.125299 -0.283632
-0.818454 -0.167726 0.377361
-0.784563 0.004925 0.584636
-0.175472 -0.136883 -0.308976
0.390015 0.152489 -0.493108
0.154875 0.158759 -0.553223
0.097672 0.133136 -0.451522
0.617177 -0.053081 0.644705
-0.433330 0.154394 -0.404651
0.819279 -0.024783 0.184529
0.026700 0.031066 -0.483397
-0.766891 -0.049752 0.093833
-0.654814 -0.197240 0.226565
0.538164 -0.077418 -0.326931
-0.573220 0.138060 0.455443
-0.531079 0.153231 0.339072
0.723318 -0.005515 -0.003662
0.505611 -0.179912 0.200549
-0.554265 -0.132305 0.430365
-0.218389 0.022066 -0.111210
-0.740427 0.096509 0.083077
0.204847 -0.008490 -0.135059
0.697904 -0.129009 0.629585
-0.540330 0.025665 0.508534
-0.707902 -0.125513 0.624399
0.502562 0.197775 0.069555
0.135847 0.155279 -0.428306
-0.809173 -0.049112 0.174997
-0.462343 0.082452 0.323140
-0.677400 -0.193413 0.452579
-0.494852 0.109538 0.353506
0.271656 0.169556 -0.209865
0.545461 0.069892 0.494631
0.134007 0.097109 -0.325882
-0.713773 0.134634 0.090930
0.273584 -0.081273 -0.039627
-0.119689 -0.164596 -0.534972
-0.564251 0.020123 0.556041
-0.765354 0.133082 0.187339
0.677993 -0.172637 0.562471
0.912827 0.058055 0.518107
-0.772718 0.199634 0.552069
0.173743 -0.071760 -0.563010
-0.335461 0.183514 -0.144526
0.295789 0.032413 0.034922
0.351297 -0.013651 0.146667
-0.648176 -0.026857 0.655378
-0.533645 -0.089088 0.453764
-0.682518 0.164442 0.599124
-0.725578 0.000444 0.615230
0.667384 -0.134429 0.001091
0.457191 -0.195065 -0.178436
0.651144 -0.112671 -0.067488
-0.527563 0.192206 -0.066940
0.908183 -0.034460 0.359079
-0.356213 -0.174219 -0.490541
-0.164823 -0.006485 -0.212061
0.136562 -0.026091 -0.270029
0.865546 -0.176955 0.542631
-0.489214 0.075680 -0.422869
0.547109 -0.163966 -0.157901
0.318881 0.182321 -0.527746
-0.655368 -0.189436 0.160233
-0.384506 0.021667 0.209149
-0.913883 -0.041386 0.517559
0.659465 -0.152919 0.027482
-0.611791 -0.161621 0.471390
0.926251 -0.065622 0.411464
-0.825812 0.177918 0.563240
-0.108144 0.035355 -0.327946
-0.655491 -0.039561 -0.126010
0.127470 0.127096 -0.382831
0.257451 -0.176620 -0.263821
-0.425064 -0.025377 0.286388
0.281185 -0.100959 -0.618738
-0.662410 -0.058865 -0.102014
0.770511 0.192537 0.591924
0.182263 0.191288 -0.485776
-0.761218 -0.188040 0.355656
-0.564342 0.145737 0.421528
0.549228 0.159871 0.355907
0.520039 -0.104487 0.409014
0.135224 -0.179856 -0.513284
-0.684676 -0.122413 0.012540
-0.722996 -0.184170 0.599294
-0.164231 0.074485 -0.558076
0.798509 -0.076595 0.174255
0.574508 0.195788 0.232328
0.342694 0.040691 0.122009
-0.771731 -0.199502 0.554531
0.558706 -0.164707 0.359586
-0.180723 0.166571 -0.566630
-0.173608 0.028640 -0.199371
-0.157407 0.172483 -0.440621
-0.690801 0.174966 0.157430
0.891977 -0.094791 0.373225
0.789529 -0.129646 0.582060
-0.316588 -0.083731 -0.637102
-0.118262 -0.132007 -0.409654
-0.532175 0.040542 0.487385
0.644517 0.158729 0.014357
0.619105 -0.175940 0.436185
-0.683883 0.195730 0.443797
-0.825264 0.036916 0.200182
0.679045 -0.197520 0.277004
0.577081 0.138283 -0.165206
-0.145991 0.114958 -0.327064
-0.409689 -0.197494 -0.105568
-0.722484 0.196189 0.344545
-0.082614 0.014654 -0.515742
0.774511 0.177629 0.329622
0.436092 0.181589 0.058832
0.496936 -0.199803 -0.025201
0.685835 0.010088 0.635844
0.522607 0.034511 -0.384270
0.756604 -0.189450 0.599137
-0.867419 0.113103 0.350120
0.475895 -0.080875 -0.443746
0.354009 -0.090651 0.105729
0.389394 -0.074934 -0.615974
-0.222327 0.176305 -0.330256
0.133351 -0.055824 -0.289770
-0.590696 0.119459 -0.173519
0.603179 -0.196310 0.281983
0.856437 -0.046950 0.264958
0.827242 -0.179273 0.438339
0.896684 -0.152615 0.484047
0.557644 -0.102942 0.483550
-0.613397 0.014701 0.651820
-0.825660 -0.124783 0.563319
-0.794579 -0.052037 0.579441
0.774407 -0.074185 0.589903
0.414079 0.059339 -0.580465
-0.324857 -0.164867 -0.583563
0.527882 -0.050703 -0.366427
0.410396 -0.194940 -0.269843
0.307214 -0.192708 -0.255455
-0.192110 0.124207 -0.253143
0.170318 0.158133 -0.369665
0.868643 0.145367 0.541024
0.098001 0.130732 -0.446304
-0.396818 -0.196794 -0.121465
0.578387 -0.116759 -0.201540
-0.903720 0.137594 0.522831
0.510931 -0.035767 0.448443
-0.559368 0.147148 -0.179727
-0.176475 -0.084577 -0.230118
-0.494161 -0.116308 0.342113
-0.584511 -0.176201 -0.042574
-0.707158 -0.154958 0.124771
-0.654080 -0.143054 -0.006503
0.931322 -0.097540 0.452354
-0.347758 -0.194236 -0.397043
0.906661 0.048963 0.362868
0.039568 0.014501 -0.454460
0.807672 -0.198777 0.545219
-0.589938 -0.199841 0.190710
-0.561084 -0.158948 -0.145874
-0.577029 -0.154526 0.424271
0.288592 0.050005 0.012993
-0.253720 0.192803 -0.590288
-0.155287 0.022717 -0.233028
-0.352469 -0.153284 -0.005417
0.309189 -0.175968 -0.574318
-0.215993 0.192760 -0.431736
0.743302 -0.033269 0.040752
-0.737730 -0.106560 0.608927
-0.253935 -0.183514 -0.301706
0.513872 0.171479 0.250297
0.626547 0.013691 0.666596
0.160413 -0.093609 -0.270848
-0.332630 -0.199741 -0.344773
0.267641 0.029682 -0.611713
0.235378 0.005019 -0.075942
0.347129 -0.140574 -0.603705
-0.266619 0.001380 -0.015584
-0.713335 -0.199971 0.418640
0.722523 0.163232 0.178022
0.806181 0.083402 0.573423
0.820744 -0.056307 0.565869
