ply
format ascii 1.0
element vertex 1657
property float x
property float y
property float z
end_header
-1.105924 0.090464 -0.121914
0.889684 0.131328 -0.184288
-0.914679 -0.103399 0.069353
-0.977099 -0.246052 -0.028688
-0.485863 -0.096636 -0.498152
-0.234806 -0.243559 0.193057
0.280152 -0.195219 0.165447
0.399455 0.148530 -0.278099
0.423295 0.192848 0.065729
0.949505 0.107241 -0.272842
0.818058 0.079953 -0.460396
0.775258 -0.527204 -0.306935
0.663637 -0.082113 -0.500272
-0.712387 -0.074530 0.170199
-0.683876 -0.237432 -0.653177
-0.505646 0.224777 -0.345775
-0.983499 -0.044185 0.069588
0.704595 -0.378179 -0.020257
0.421147 -0.130388 0.263117
0.325174 0.060257 0.032289
-0.416735 0.335817 -0.252238
0.215950 -0.131439 -0.117690
-0.308446 0.215822 -0.266029
0.742663 0.039502 -0.480335
-0.950662 0.047578 0.129529
0.554209 -0.400660 -0.117031
-0.286404 -0.279036 0.249812
-0.548855 0.367081 -0.293025
0.638053 -0.428445 -0.110108
-0.231718 -0.121823 -0.402207
-0.939473 -0.391875 -0.233671
0.431883 -0.278954 -0.247217
-0.498706 -0.471073 -0.121358
-0.804730 -0.305104 -0.519975
-0.568114 0.123225 0.330771
0.919801 0.110515 -0.193750
-0.880366 0.103980 0.163259
-0.628288 -0.373387 0.056579
-0.851179 -0.470305 -0.365761
-0.480044 -0.218295 -0.556542
-0.952214 -0.051749 0.079165
-0.630920 -0.544485 -0.030159
0.737069 0.102470 0.070978
0.993832 0.027097 -0.173064
-0.542166 -0.434857 -0.283368
0.868068 -0.473568 -0.144341
0.604270 0.259622 0.089482
-0.886574 -0.078794 -0.460569
1.029457 -0.153303 -0.107759
-0.601155 -0.386455 -0.500982
-0.762227 -0.503064 -0.065515
0.779127 -0.262218 0.039657
-0.953415 0.184500 -0.444253
-0.391152 -0.492707 0.073750
0.254333 -0.220202 -0.050349
-0.918944 -0.584180 -0.192952
-0.894394 -0.329478 -0.035108
0.743220 -0.504570 -0.364869
-1.064245 0.011102 -0.166891
0.659115 0.073810 -0.427938
0.346603 -0.113542 0.194287
-0.533408 0.330004 -0.102823
-0.685158 -0.397343 0.020302
0.472740 -0.353070 -0.172577
-1.089738 -0.122690 -0.015070
-0.293434 0.174559 0.130557
-0.945221 0.177776 -0.138296
0.913389 -0.152010 -0.016911
-0.699482 -0.553106 -0.114992
0.674728 -0.332583 0.030415
-0.973470 0.076699 0.133643
0.760201 -0.127449 -0.568501
0.999244 -0.312888 -0.169943
-0.603536 -0.534004 -0.057190
-1.066109 0.145291 -0.218490
0.738094 -0.187264 0.089884
0.436519 0.059021 0.185974
0.582659 -0.410106 -0.268426
-0.492768 0.262710 0.149866
-0.387323 -0.130608 0.280978
-0.392291 -0.368268 -0.304325
-0.361165 -0.398478 -0.175359
0.463723 -0.211546 0.187573
-0.268295 -0.400586 -0.057056
-0.855382 -0.038742 -0.535038
0.691408 0.134046 0.100545
-0.970193 -0.037840 0.078446
-0.099578 -0.109126 -0.113709
-0.495448 0.263679 0.143702
0.797041 0.160626 -0.339562
-0.740297 0.261270 -0.144086
-0.589042 -0.225491 -0.606697
-0.974242 0.000364 0.095832
-0.280806 0.155795 0.114763
-0.934613 -0.056299 0.084406
-0.134975 0.091592 -0.130218
-0.953631 0.059097 -0.392390
0.902316 -0.035055 -0.514885
-0.351184 -0.356020 -0.291861
0.299272 -0.155719 -0.195537
-0.568661 0.283797 -0.005430
-0.779364 -0.006545 -0.578431
0.460250 -0.348377 -0.152525
-0.714227 -0.564484 -0.098321
0.547778 0.160475 -0.328882
0.168974 -0.020634 -0.132725
-0.419544 0.163179 0.369862
1.085435 -0.035057 -0.227231
-0.161076 0.148269 -0.236887
0.423182 -0.310103 0.043454
-0.912570 -0.516390 -0.232629
0.725992 -0.445784 -0.443394
-0.523088 0.360624 -0.183081
-0.286313 -0.136899 0.245118
-0.739751 -0.085706 0.152920
-0.785915 0.262340 -0.446686
-0.434460 -0.114662 0.268824
0.436425 -0.194908 -0.316980
0.421781 -0.255003 0.144379
-0.076640 -0.229885 -0.342830
-0.127866 -0.364369 0.002543
0.780864 -0.325797 -0.459667
-0.695416 -0.336372 0.046429
1.059171 -0.097388 -0.252155
0.532771 -0.365436 -0.274749
-0.808633 0.013362 0.173070
-0.819907 -0.019561 -0.602260
1.053419 -0.227191 -0.161010
0.761999 -0.508579 -0.234353
-0.775426 -0.394424 -0.537844
-0.596243 -0.430075 0.041900
-1.107716 0.048734 -0.101455
-0.356152 -0.162115 0.278526
-0.879516 -0.530308 -0.288417
0.256092 -0.100424 -0.182660
-0.546323 -0.489027 -0.124394
0.778221 -0.165554 0.072431
-0.898216 -0.603717 -0.173962
-0.102899 -0.037463 -0.136938
0.459097 -0.028328 0.283592
-0.539334 -0.334796 -0.582861
0.349972 -0.088888 0.180099
-0.453851 0.218003 -0.327042
-0.565570 0.023606 -0.472030
0.609352 -0.109816 0.185576
0.292187 -0.191900 0.179424
-1.142121 0.042758 0.033138
-0.933300 -0.187492 -0.329027
0.399553 0.320634 -0.146024
0.630374 0.223891 0.098130
-1.032564 -0.319265 -0.090267
0.930877 -0.387974 -0.092375
-0.418412 -0.031162 0.317460
0.577483 0.258330 0.130841
-0.475598 -0.420427 -0.246826
-0.242351 -0.330882 -0.236798
-0.227918 -0.218452 -0.448934
-0.942536 0.176685 -0.461287
-0.177604 0.075427 -0.280395
-0.878766 -0.190732 -0.429160
0.563488 0.261329 0.146620
-0.699185 -0.114620 0.155778
-0.460911 -0.345918 -0.454679
-0.466739 0.233888 0.268486
0.978508 -0.187092 -0.294366
-0.750778 -0.269735 -0.634870
0.657803 0.108841 -0.401531
0.857068 0.013161 -0.534005
0.353471 -0.053561 0.157946
0.959235 0.094581 -0.241852
-0.820709 -0.468444 -0.423216
-0.483737 -0.055724 -0.476773
-0.548836 -0.472871 -0.176330
-0.178667 0.297743 -0.133522
-0.271815 -0.359606 -0.185353
-0.546600 0.182243 0.328581
-0.263359 0.013584 0.140660
-0.019331 -0.110565 -0.262422
0.619546 0.288468 -0.116534
-0.937625 -0.515119 -0.186534
-0.654257 -0.332119 0.066137
0.981142 0.015494 -0.143706
-0.445101 -0.341873 0.150589
-0.496247 0.346555 -0.280826
-0.922823 -0.270894 -0.314294
-0.145496 0.012177 -0.298330
-0.972996 0.103572 0.052864
-0.591634 0.297314 -0.074035
0.838165 -0.506684 -0.243051
-0.126902 -0.367639 0.043212
-0.541967 0.363146 -0.213467
-1.017091 0.070420 0.100080
-0.196630 -0.263048 -0.387047
-0.466187 0.220589 -0.331017
0.318834 -0.270153 -0.047054
-0.739470 -0.492892 -0.345464
0.724224 -0.474801 -0.168901
0.267942 0.044265 -0.224222
0.527414 -0.032310 -0.406582
0.621265 0.212190 0.121903
0.493751 -0.337869 -0.257165
-0.426660 -0.151881 0.253532
-0.471831 -0.176273 0.222034
0.391524 -0.286520 0.081539
-0.701047 -0.032310 -0.557873
-0.363908 0.230958 0.238534
1.069452 -0.015355 -0.300639
-0.855789 -0.341423 -0.410072
0.399810 0.294852 -0.174693
0.857642 -0.502100 -0.179892
1.013293 -0.043019 -0.135330
0.728651 -0.264384 -0.557067
-0.664187 0.260663 -0.050524
0.732981 0.105702 -0.421465
-0.117406 -0.118665 -0.076624
-0.751845 -0.264909 0.058085
-0.227186 -0.459480 0.170769
0.535162 -0.256271 0.130948
-0.249273 0.123542 0.069329
-0.826470 -0.387886 -0.445557
0.821412 0.164164 -0.119056
-0.910267 -0.614078 -0.184445
-0.522834 0.332454 -0.097498
-0.343805 -0.419013 -0.092276
-0.528244 -0.119431 -0.527660
-0.122643 0.167403 -0.210898
0.606234 -0.390326 -0.042235
0.908599 -0.176076 -0.398672
0.797471 -0.460902 -0.125350
0.381720 -0.084872 0.220587
-0.155311 -0.336713 -0.114252
-0.055889 -0.119487 -0.190743
-0.454566 0.084044 0.359664
-0.900241 -0.201065 0.026650
0.952100 -0.122360 -0.049265
0.894740 -0.222057 -0.382602
-0.646178 0.231982 0.058004
0.955806 -0.329811 -0.216619
0.332302 0.185012 -0.229546
-0.181432 -0.433417 0.171660
-1.027129 -0.023492 -0.221752
-0.975411 -0.143689 -0.268651
-0.634314 0.264325 -0.025608
0.644406 -0.354614 -0.442160
-0.441432 -0.118676 -0.490203
-0.360910 -0.449232 0.132828
-0.962073 0.121159 0.012786
0.326038 -0.026190 -0.265154
-0.891093 -0.075102 0.093585
0.775611 0.140068 -0.004375
0.362881 0.003181 -0.293086
-1.018748 0.164091 -0.185478
0.343380 0.118655 -0.260562
-0.267922 0.055406 0.131987
-0.476983 -0.418760 0.098499
0.593940 0.168326 -0.334251
0.620771 0.231202 0.102882
0.397191 -0.257781 -0.224143
0.609745 -0.038192 0.201049
-0.271703 -0.338960 -0.247720
0.570463 -0.219500 0.150180
0.681393 -0.255891 -0.519790
0.245428 0.135281 -0.134346
-0.349639 -0.372017 -0.241573
0.770928 0.125950 -0.401835
0.410023 -0.116557 -0.319588
0.320839 0.267150 -0.177773
-0.336586 -0.260449 0.237680
-0.954073 0.046893 -0.386560
-0.101866 -0.177856 -0.081248
-0.901238 -0.604424 -0.202789
-0.594136 0.352749 -0.244863
-0.393812 0.098059 0.348709
-0.191514 -0.390944 0.006288
1.005478 -0.239715 -0.085425
-0.626928 -0.146474 -0.583341
0.581015 0.289358 0.076493
-1.144622 0.056966 -0.036166
0.689481 0.159072 -0.357747
0.716554 0.214770 -0.258786
0.732299 -0.407889 -0.463654
-0.731822 -0.571349 -0.086697
0.612516 -0.145183 -0.475369
0.371910 -0.190397 0.225219
-0.189422 0.002915 -0.321726
0.635817 0.221097 -0.274938
-0.613655 -0.495560 -0.185763
0.873136 0.130836 -0.364524
0.320576 0.162906 -0.233081
0.754658 0.213485 -0.116102
0.680590 0.127005 0.116029
-1.044861 -0.046438 0.042251
0.376888 -0.003938 -0.303266
-0.306743 -0.281625 -0.463513
-0.881920 -0.047280 -0.482160
-0.629669 -0.201366 -0.611977
-0.602206 -0.287918 -0.643556
-0.407714 -0.081640 0.296771
0.588945 -0.005901 0.218392
0.909536 0.012696 -0.541413
-0.389851 0.089918 0.344679
-0.971252 -0.417905 -0.112181
-0.810388 0.123478 -0.526621
-0.496219 -0.122356 -0.515445
-0.768298 -0.460396 -0.478579
-0.536182 0.184311 0.334873
-0.943774 -0.415490 -0.099236
-0.333553 0.355996 0.059348
0.433250 0.344939 -0.036656
0.765444 -0.446475 -0.388747
-0.903204 0.059114 0.155571
-1.002968 -0.126754 -0.224330
0.784856 0.113402 -0.418173
0.255918 -0.239242 0.054404
0.882432 -0.455189 -0.127622
-0.455022 -0.457984 0.088253
-0.494765 -0.088655 -0.497961
-0.163809 0.237634 -0.136501
-0.518254 0.179832 -0.373649
-0.243638 0.096919 -0.297845
-0.386788 0.026975 -0.393985
-0.613133 0.278065 -0.041676
0.771784 -0.147427 -0.580356
-0.652804 0.259674 -0.033810
-0.770977 0.144156 0.173469
-0.768711 -0.412950 -0.023194
-1.018894 -0.163928 -0.179444
-0.975771 -0.130768 0.029565
-0.500815 -0.451971 -0.181727
0.843154 -0.220516 -0.454543
-0.983696 -0.378492 -0.097775
0.943353 -0.214543 -0.041042
0.943634 -0.373304 -0.089788
-0.026544 -0.236390 -0.262766
-0.268222 0.307973 -0.202739
-0.679738 -0.294058 -0.679744
-0.784638 0.114053 -0.520340
0.377545 0.279130 -0.062861
0.857965 -0.458760 -0.127011
-0.990045 -0.159003 0.009340
0.551449 0.091946 -0.374853
-0.268271 0.105228 -0.304209
-0.558172 0.209189 -0.376009
-0.730902 0.046973 0.223088
-0.466012 0.338814 -0.048271
-0.180147 -0.435767 0.170234
-0.755028 -0.384769 -0.579756
-0.449452 -0.023471 0.308050
0.700278 0.072325 -0.442597
0.990003 0.079439 -0.402406
0.294640 -0.165988 -0.182675
-0.704725 0.308130 -0.243070
-0.556446 0.341017 -0.163927
-0.253611 0.269362 0.017562
-0.239400 -0.160673 -0.424927
0.334770 0.038864 -0.271189
-0.668376 -0.296608 -0.676167
0.796009 -0.464852 -0.332797
-0.362869 -0.404929 0.154159
-0.171379 -0.342242 -0.116877
-0.977236 -0.224090 -0.232264
1.025855 0.051259 -0.270299
0.916937 0.058967 -0.488561
-0.690400 0.302651 -0.209219
-0.591980 0.129950 0.323943
0.184629 -0.134915 -0.074449
-0.431932 -0.113585 0.270443
-0.888930 -0.246771 0.008610
0.780892 -0.181528 -0.569700
-0.781690 0.242426 -0.136925
0.315654 0.201641 -0.088641
1.022716 0.028852 -0.218583
0.918626 -0.350706 -0.067200
-0.530953 0.336644 -0.119965
-0.516547 0.193739 0.329998
-0.539410 0.150377 0.356618
-0.371922 -0.178390 0.263647
-0.153226 -0.299172 -0.225383
0.399015 -0.205656 0.205264
-0.244361 -0.169108 -0.431267
0.421944 0.153124 -0.286165
-0.549864 -0.144967 0.204370
-0.675433 -0.255380 -0.658551
0.897562 0.133013 -0.324022
-0.179636 0.211987 -0.212931
0.218771 -0.197848 -0.030716
-0.521979 -0.351802 -0.510464
-0.512331 -0.382336 -0.406404
-0.807791 0.292581 -0.320208
-0.520423 0.045951 -0.441566
-0.329713 0.413128 -0.108975
-0.392896 0.399270 -0.143169
-0.362368 -0.363166 -0.283709
0.529640 0.223167 0.188480
-0.865407 0.130958 0.099619
-0.186739 -0.023934 0.013499
1.080224 -0.024488 -0.231870
-0.407730 -0.009526 0.332848
-0.986768 -0.420777 -0.133816
0.422078 -0.189831 -0.305113
-0.846618 -0.114656 -0.520192
0.464006 -0.057735 0.281629
-0.618265 -0.206032 -0.609442
0.915938 -0.320555 -0.278372
-0.318683 -0.073833 0.279465
-0.242546 -0.280440 0.222591
-0.363087 -0.039125 -0.416936
0.842373 -0.521074 -0.213273
-0.563480 0.177658 0.322118
-0.415279 -0.025780 -0.432550
-0.412698 -0.466109 -0.032734
-0.371673 -0.025265 -0.413668
-0.469650 0.205468 0.351009
-0.434269 0.389269 -0.162754
0.462324 0.251805 -0.228550
0.571336 -0.412828 -0.215745
-0.527155 -0.373735 -0.450305
-0.224152 -0.371040 -0.093298
0.769741 0.134102 0.009400
0.904269 0.032979 -0.066353
-0.436577 0.143673 -0.356857
-0.018908 -0.150662 -0.246756
-0.726883 -0.425262 -0.535026
0.945821 0.012653 -0.098726
-0.233580 0.201267 0.008236
0.956725 -0.335302 -0.211168
-1.011714 -0.370842 -0.107894
0.739471 0.222842 -0.110662
-0.660562 -0.429954 -0.440896
-0.568095 0.341113 -0.178257
-0.576306 -0.375046 -0.505572
0.411174 -0.306854 0.042656
0.494910 0.094758 0.238809
-0.935259 -0.173647 0.025412
-0.577686 0.248893 -0.364477
-0.724325 0.138361 0.247235
-0.210697 0.313526 -0.080405
-0.810457 0.229082 -0.131198
-0.260279 0.049718 0.120100
0.841004 -0.386061 -0.058537
-0.362515 0.187521 0.253768
0.690625 -0.477381 -0.315449
0.794024 0.158225 -0.345951
-0.474880 0.035191 -0.427498
-0.612599 0.056432 -0.475691
-0.091069 -0.304759 -0.133562
0.618972 0.267222 0.050968
-0.184671 -0.435831 0.150418
0.770971 0.146041 -0.004755
0.471043 0.184350 0.137713
-1.057689 0.010972 -0.179036
1.090069 -0.139099 -0.165166
0.579317 0.253093 0.134436
0.516390 -0.011611 0.264992
0.475527 0.154169 -0.308040
-0.433423 -0.341850 0.155588
-0.355738 0.321961 0.135642
0.955361 -0.185566 -0.047547
0.761185 -0.097530 0.093142
-0.619293 0.073651 -0.469935
1.023050 0.013473 -0.197589
-0.428743 0.385913 -0.145934
-0.839410 0.252493 -0.236960
-1.049722 0.079641 0.032842
-0.167942 0.189512 -0.109063
-0.169392 0.218137 -0.118112
-0.686064 0.169659 0.198598
-0.201040 -0.269960 -0.371437
-0.685033 -0.027849 0.205241
-0.382370 0.147783 -0.331648
-0.400821 -0.099502 0.290778
-0.845347 0.009348 -0.573443
-0.044813 -0.062899 -0.292893
-0.301405 -0.199139 -0.470658
-0.491206 0.053368 0.328665
0.720859 -0.149321 0.110595
-0.950062 0.025289 -0.385157
0.410924 0.284592 -0.021240
-0.882184 0.066423 0.168206
-0.881191 0.178516 -0.529323
0.604151 0.296067 -0.110879
0.635295 -0.353070 -0.432858
-1.042378 -0.149033 -0.008024
0.403423 -0.182952 -0.289762
0.958270 -0.321186 -0.219819
0.902087 0.068679 -0.095444
-0.156773 0.244392 -0.186952
0.557558 -0.056666 -0.429885
0.760177 -0.043330 0.093802
-0.094886 -0.096409 -0.127657
-0.198079 -0.453938 0.189072
-0.654032 -0.384191 -0.571559
-0.889298 -0.515436 -0.125980
-0.268312 0.167685 0.086638
0.471456 -0.358830 -0.094704
-0.324740 -0.390608 -0.155287
-0.017462 -0.070755 -0.282235
0.361730 -0.017095 -0.292609
0.590530 0.308753 -0.051084
0.757466 -0.466192 -0.137706
-0.293044 0.051148 -0.341850
0.554403 0.149547 -0.339190
0.690163 0.127195 -0.392564
0.387387 -0.168826 -0.280658
-1.107003 -0.108917 -0.038087
0.805334 0.159328 -0.076530
-0.333612 0.221228 0.186160
1.086709 -0.049873 -0.214483
0.377203 0.007844 -0.302760
-0.767938 -0.215528 0.075921
-0.267343 0.007071 0.150745
0.414292 0.109875 0.116684
-0.909677 0.085989 0.166253
-0.767991 -0.293350 -0.593153
-0.180037 -0.364829 -0.058938
0.867448 0.147507 -0.182401
1.051827 -0.105306 -0.256187
0.908385 -0.095059 -0.460778
-0.603203 0.166631 0.307624
0.857123 -0.006367 -0.550315
0.261295 0.201478 -0.163087
-0.076316 -0.311855 -0.094302
-0.363102 0.155636 -0.319489
-0.634744 -0.044517 -0.535662
-0.077054 -0.020458 -0.192002
0.215899 -0.075362 -0.014142
-0.118751 -0.185895 -0.046533
-1.077710 -0.178751 -0.037985
1.019985 -0.287909 -0.101400
0.951509 -0.122327 -0.048788
-1.037376 0.018946 0.078165
-0.292097 0.262972 0.091788
-0.332982 -0.405697 0.166540
0.412595 0.347216 -0.066727
0.466123 -0.330634 0.020791
0.947404 -0.123114 -0.045336
0.940515 -0.241479 -0.304990
0.525697 -0.384045 -0.204054
-0.738189 -0.222567 -0.668936
0.250118 0.114296 -0.205775
0.967709 0.037975 -0.480898
-0.979639 -0.316602 -0.065074
-0.377542 0.376545 -0.215120
-0.255047 0.359079 -0.171540
-0.268785 -0.172577 -0.443435
-0.809449 0.186238 -0.000285
-0.516680 -0.098432 0.241828
-0.630490 -0.109615 0.187623
0.980223 -0.314630 -0.084333
-0.657376 0.278823 -0.097290
-0.378226 0.376135 -0.055455
-1.080166 0.010931 -0.137199
0.784667 0.162931 -0.047731
1.081400 -0.152385 -0.179700
-0.115727 -0.123584 -0.077730
-0.018503 -0.160759 -0.330623
-0.792124 0.052544 0.199727
0.353933 -0.158444 0.238602
0.002489 -0.202037 -0.331770
-0.776933 -0.480021 -0.429575
-0.751847 0.075038 -0.525856
1.007748 0.075680 -0.323431
-0.083828 -0.143339 -0.128974
0.528169 -0.358763 -0.279147
-0.762247 0.157686 -0.488943
0.595565 0.199841 0.162163
0.827863 -0.345177 -0.380407
-0.624857 -0.434691 0.027369
-0.175138 -0.306836 -0.228589
-0.461976 -0.411199 -0.258345
0.500805 -0.089750 0.250230
0.798352 -0.150935 0.062457
-0.973466 0.214330 -0.282992
-0.864416 -0.537185 -0.313690
0.556435 -0.330217 -0.357299
0.807591 0.134392 -0.385934
0.621239 -0.236621 0.120567
0.337367 -0.248076 0.139404
-0.593266 0.216117 0.169796
0.628627 0.139739 -0.367896
-0.522708 0.375753 -0.228420
0.746929 -0.263927 -0.553422
-0.892650 -0.591308 -0.232145
-0.271357 -0.435740 0.177829
-0.377379 -0.380345 0.160263
0.642470 0.020181 -0.452032
-1.062310 -0.231872 -0.057987
0.952273 0.019840 -0.112074
-0.277857 -0.366056 -0.173109
-0.109032 -0.059936 -0.318839
-0.788564 -0.560547 -0.199826
0.378626 -0.296073 0.042486
-1.103837 0.016325 -0.095372
-0.164204 -0.377433 0.116633
0.515784 -0.150067 0.214217
-0.250519 0.341481 -0.017786
0.217782 -0.207658 0.089379
0.899469 0.136193 -0.291831
-0.906266 -0.127892 0.060690
0.952348 0.013145 -0.483026
0.522954 -0.380408 -0.079446
-1.037302 -0.270347 -0.066558
-0.381653 -0.449852 0.123659
0.738266 -0.249029 -0.566177
0.732753 -0.324962 0.021038
-0.878726 -0.153095 0.059842
-0.328695 0.008895 0.264144
-0.960094 -0.214445 -0.268114
-0.123698 0.106846 -0.241650
0.524133 -0.149285 0.211111
0.601746 0.045029 0.209276
0.807636 0.112276 -0.419528
-0.632936 0.098918 0.290922
0.615376 -0.346924 0.023639
-0.767345 0.237221 -0.451323
-0.541173 0.154390 0.357873
-0.636919 0.159455 0.288716
-0.724146 -0.362559 0.021054
-1.044536 -0.150569 -0.137218
-0.113878 -0.359911 0.015809
0.881081 0.141504 -0.199471
0.681934 0.240087 -0.216800
-0.716016 0.299143 -0.398416
0.855014 -0.210535 0.015959
-0.343350 -0.064055 -0.420980
-0.411884 -0.316867 -0.483538
-0.873888 -0.033045 -0.502946
-0.974042 0.011611 -0.334927
-0.735036 -0.043849 -0.578164
-1.119901 0.068404 -0.017718
-0.247573 0.087320 0.081031
0.861425 0.149190 -0.171338
-0.162023 -0.293744 0.078234
0.464882 0.108302 -0.327550
0.543487 0.196854 0.219355
-0.975927 -0.228514 -0.232883
0.371760 0.179708 0.005059
-0.207547 -0.232532 -0.447278
-1.155382 0.044647 -0.011091
0.787139 -0.050164 -0.552472
-0.611083 0.082420 -0.462040
-0.881994 0.243745 -0.261800
0.714671 -0.058991 -0.521397
-0.594870 -0.410130 -0.421737
-0.311940 -0.015609 0.243026
-0.266603 -0.284316 0.255628
-0.413551 -0.491086 0.041851
-0.483145 -0.446212 0.082131
0.309597 -0.107666 0.139039
-0.360277 0.043408 0.308742
-1.051828 -0.094938 0.015008
0.432136 0.346040 -0.039022
0.657535 0.259023 -0.181593
-0.959465 -0.057156 0.073362
0.477596 -0.323400 0.042600
-0.146784 0.191369 -0.149190
0.239988 -0.184654 -0.091159
0.608145 -0.415475 -0.098259
-0.775466 -0.242744 -0.600012
-0.844062 -0.000114 0.151195
0.415784 0.176805 0.067665
0.355839 0.322846 -0.138972
1.003492 0.076309 -0.305233
0.513049 -0.343082 -0.280392
0.304642 -0.214518 -0.146572
-0.475859 0.172645 0.394903
-0.221310 0.375459 -0.086074
-0.940509 0.201900 -0.205644
-0.112759 -0.265426 -0.025045
-0.821807 -0.589431 -0.152449
0.520607 -0.340122 0.024959
-0.360515 0.001893 0.326221
-0.511671 -0.040198 0.273106
0.565929 0.316521 0.031526
-0.315410 -0.360836 0.196493
0.898110 -0.151473 -0.005780
-0.664296 0.159506 -0.446196
-0.731009 0.249348 -0.096800
0.655592 0.061428 0.163390
-0.945042 -0.286495 -0.035233
0.310778 0.189909 -0.086380
0.273341 -0.102358 -0.198969
0.561060 -0.250239 -0.414061
-0.222115 -0.317605 -0.252603
0.735649 0.102060 -0.425561
-0.129063 0.150971 -0.165583
-0.874420 -0.225182 0.025611
-0.334999 -0.228410 -0.499653
0.445576 0.215566 -0.255724
-0.871261 0.104437 0.172851
-0.672472 0.284900 -0.386945
-0.319932 -0.354618 0.197673
0.260225 -0.083616 0.052962
0.850972 -0.308358 -0.015605
-0.191593 -0.017861 0.020039
0.569780 -0.007467 -0.425663
0.665598 0.249923 -0.202629
-0.944350 -0.158109 0.029304
0.300376 0.049975 -0.246800
-0.288417 0.071885 0.163356
0.401088 -0.280383 -0.199451
-0.397484 0.350981 -0.002517
0.820502 0.177810 -0.255762
-0.838476 0.119483 0.166815
-0.650150 0.292802 -0.373456
0.593922 -0.397038 -0.061236
0.268063 -0.245993 0.045741
0.245097 -0.219829 0.136135
0.558040 -0.315334 0.065069
-0.548503 -0.446410 -0.256030
-0.793112 -0.433465 -0.488917
0.597048 -0.303961 -0.423646
-0.189322 -0.272366 0.120252
0.687618 0.253116 -0.147547
-0.718396 -0.420947 -0.537859
-0.138365 -0.351425 -0.049293
0.940045 0.104557 -0.225309
-0.737328 -0.567081 -0.086913
0.459243 -0.092502 -0.362870
-0.775190 -0.491824 -0.391744
-0.795355 -0.375678 -0.015924
-0.979313 0.099030 -0.360994
0.501830 -0.349500 -0.249651
-0.890888 -0.247916 0.007201
-0.369915 -0.242745 -0.521739
-0.440979 -0.441601 0.102448
-0.515031 -0.498633 -0.057602
-1.008036 -0.322518 -0.134567
0.670684 -0.437926 -0.113135
1.067685 0.003247 -0.250436
-0.968920 0.228379 -0.320042
0.466202 0.077534 0.212568
0.491830 0.320654 -0.136769
0.439378 -0.154939 0.239892
-0.615551 0.106972 0.302378
-1.092420 -0.166314 -0.038044
-0.640557 0.186106 0.203654
-0.179565 -0.253137 0.094207
-0.469117 0.350523 -0.087460
-0.771041 -0.187455 -0.630934
-0.810012 0.081617 -0.547407
-0.556187 0.071730 -0.443943
-0.933322 0.160596 -0.071949
-0.558813 0.314687 -0.087074
-0.594431 -0.388751 -0.485927
0.787275 -0.374139 -0.413989
0.517017 -0.382938 -0.173275
0.748791 0.209639 -0.081412
-0.228582 -0.284957 -0.359230
-0.243952 0.341325 -0.029940
-0.124345 -0.245819 -0.011536
-0.931055 -0.296330 -0.288541
-0.254860 0.038625 0.114570
-0.983577 -0.023742 -0.302680
0.678384 0.259404 -0.090535
-0.399408 -0.388101 0.146974
-0.103420 0.067000 -0.178837
-0.840860 -0.310338 -0.002665
0.968324 -0.328492 -0.082418
1.038872 -0.113419 -0.267770
0.356277 0.252458 -0.200067
-0.687019 -0.215926 -0.643758
-0.464881 0.104897 -0.388348
-0.131708 -0.156247 -0.034592
-0.823242 -0.085060 -0.575829
-0.176164 0.327415 -0.153692
-0.039299 -0.205344 -0.186377
0.253976 -0.235254 0.007523
0.847799 -0.274480 0.000588
-0.158762 0.052092 -0.069752
0.771210 0.028405 0.070676
-0.994638 -0.040309 0.066770
0.459009 0.324962 -0.137292
0.533895 -0.201106 0.175498
-0.711163 0.000472 0.208251
0.577825 -0.291840 0.088540
0.647562 -0.233544 -0.495768
-0.831169 -0.146965 0.083222
0.693327 -0.092960 0.138951
0.909430 -0.438063 -0.119194
0.563407 0.319667 -0.075755
0.631705 0.285677 -0.062543
0.508079 -0.303240 -0.322128
-0.730981 0.254639 -0.112785
-0.286282 -0.211594 0.275713
-0.406535 -0.361589 -0.341710
-0.356261 0.223744 0.227267
0.303036 -0.174291 0.180871
-0.571252 0.293580 -0.038170
0.400438 0.174866 0.048093
-0.654357 -0.390520 -0.552792
0.351486 0.223006 -0.055788
-0.708979 -0.274732 0.071479
-0.535560 -0.482877 -0.130039
0.326578 0.286684 -0.138540
-0.258964 -0.229139 -0.467542
-0.127432 0.158244 -0.171603
-0.363138 -0.456514 -0.002052
0.402930 0.264843 -0.203739
0.980877 0.085253 -0.268731
0.359137 -0.210476 -0.222588
-0.871876 0.102448 0.178132
-0.529377 -0.508751 -0.044263
0.797837 -0.028696 0.061871
-0.923256 0.290872 -0.491069
1.000527 -0.278633 -0.194318
0.181422 -0.166108 -0.026019
0.462295 0.251166 0.074734
-0.661098 0.178319 -0.435417
-0.153287 -0.012356 -0.313933
-0.618303 -0.262009 0.116574
-0.767072 0.295386 -0.279628
-0.937811 0.232012 -0.293548
-0.229974 0.242579 -0.015427
0.812711 -0.388695 -0.367990
0.540160 -0.388208 -0.231254
-0.211181 0.280086 -0.065783
-0.338047 0.318695 -0.227197
-0.909653 0.117623 0.086666
0.465931 -0.086542 -0.368274
-0.101917 0.095289 -0.193241
-0.691766 0.255862 -0.409715
0.822799 0.022469 -0.517372
-0.074874 0.001039 -0.204880
-0.918242 0.198679 -0.515513
-0.824559 -0.526532 -0.346176
0.610204 -0.116716 0.182924
-0.228830 0.049871 0.061524
-0.859659 -0.187047 -0.466223
-0.824769 0.154714 0.076680
-0.541460 0.236583 0.170277
-0.606238 -0.402952 -0.457166
-0.704678 -0.462870 -0.394419
0.604728 -0.207429 -0.464937
-0.111819 -0.057475 -0.318798
0.816141 -0.082913 0.053531
0.439080 -0.189534 -0.322077
-0.760080 -0.071373 -0.602633
0.602830 0.299149 -0.095100
0.609510 0.208477 0.139469
0.589075 -0.344799 -0.384461
-0.171519 0.137843 -0.081205
0.974287 0.093840 -0.294358
0.433593 0.217995 0.060670
-0.456498 -0.372562 -0.368706
-0.317969 0.372580 -0.191659
-0.134089 -0.088512 -0.343840
0.417383 -0.020327 0.220264
-0.608159 0.179600 0.262394
-0.476763 -0.030801 0.292718
-0.297800 -0.346797 -0.255445
-0.249332 -0.374453 0.217902
-0.232827 -0.418956 0.202684
-1.027789 0.120476 -0.279603
-0.176142 -0.360000 0.131691
-0.322763 0.053446 0.234825
0.661802 0.059139 -0.438527
-0.358811 -0.192052 0.262411
-0.923951 0.174403 -0.102451
-0.237628 -0.296836 0.220170
-0.914029 0.152785 -0.025050
-0.793745 0.211365 -0.475537
-0.345918 -0.433268 -0.051671
-0.624170 0.183913 0.230043
0.288109 -0.139284 -0.194126
0.678819 -0.385001 -0.458403
-0.635445 -0.007586 0.236559
-0.932728 -0.231841 -0.002626
0.835082 -0.175952 0.034965
0.876946 -0.281173 -0.361908
-0.404356 0.245720 0.307731
-0.847000 -0.400869 -0.050587
0.950298 -0.084837 -0.055770
0.217543 0.034071 -0.186057
0.367029 0.037574 -0.292770
-0.234941 0.190091 0.015355
0.673336 0.189058 -0.318722
-1.053639 -0.058390 -0.158108
-0.703973 0.276184 -0.145455
0.950401 -0.431235 -0.127074
-0.366065 -0.137663 0.286527
-0.976250 -0.085931 -0.290793
-0.786010 -0.546526 -0.239192
-0.663652 0.163426 -0.443960
-0.317275 -0.349637 -0.270317
-0.406919 0.123284 0.362743
0.302288 -0.204396 0.202815
-0.250466 0.170182 -0.264102
-0.594344 0.075742 0.295809
-0.778692 0.191202 0.021754
-0.456166 0.385582 -0.244179
-0.400664 0.268758 0.242556
0.833808 -0.186094 -0.493627
-0.451524 -0.219736 -0.545082
-0.756782 0.127303 0.241593
-0.320800 0.349998 -0.204168
-0.387097 0.298602 -0.258202
-0.495040 0.358753 -0.274207
0.874557 -0.276474 -0.368771
-0.923522 -0.055136 -0.401533
-0.854537 -0.239380 -0.454276
-0.211819 -0.283048 -0.344807
-0.509178 -0.049022 0.269756
0.446123 -0.342699 -0.052821
-0.842399 0.197035 -0.072682
-0.302466 0.274506 0.106347
-0.751789 0.110071 0.245740
-0.581724 -0.413763 -0.394895
1.015078 -0.037800 -0.358104
-0.488905 0.299739 -0.301116
0.259946 0.133102 -0.208195
0.504119 0.272740 0.115648
-1.087220 -0.102013 -0.003649
-0.169717 -0.249299 -0.396231
-0.915993 -0.094427 -0.399418
-0.670515 0.271857 -0.092034
0.976283 -0.402819 -0.132827
-0.318365 -0.306643 -0.401783
-1.015559 -0.239477 -0.154647
-0.470082 0.341051 -0.059948
-0.732667 -0.492834 -0.337441
-0.858137 -0.276514 -0.432341
0.919550 0.108863 -0.188667
-0.576959 -0.047985 -0.512717
-0.286720 -0.139122 -0.434355
0.562931 0.014224 0.237763
-1.074764 0.003119 -0.144044
-0.928293 0.242194 -0.312901
-0.719350 -0.403811 -0.590885
-0.782416 0.299098 -0.309358
-0.101142 -0.317014 -0.108604
-0.511475 -0.273848 -0.597764
0.468270 -0.328935 -0.228955
-0.123972 -0.241339 -0.014067
-0.692419 -0.507649 -0.244088
0.799078 0.040258 0.039905
0.668125 0.253699 -0.019958
-0.654458 -0.176694 -0.610220
-0.282392 0.347624 0.038994
-0.809086 0.257395 -0.215255
0.471153 -0.256458 -0.317183
0.269287 0.130649 -0.098082
-0.997400 0.229255 -0.357015
0.590936 -0.412410 -0.281853
0.865684 0.150411 -0.189934
-0.299606 0.368855 -0.185680
-0.913436 0.238553 -0.283975
-0.515260 0.322530 -0.300968
0.618999 -0.412517 -0.083062
-0.621274 0.188953 0.218276
-0.501742 0.341002 -0.097955
0.586753 0.293511 -0.145954
-0.817037 -0.077824 -0.590344
-0.479386 0.288261 0.088645
-0.812478 -0.232123 0.048594
0.877928 -0.093437 0.006490
0.652014 -0.225620 0.115029
-0.785109 -0.196635 0.078040
-0.703658 0.255564 -0.082654
-0.770014 -0.562045 -0.172935
0.824295 -0.410891 -0.074201
-0.347335 0.064920 0.275836
0.388939 0.116578 0.076791
-0.552357 0.139639 -0.408327
-0.466377 -0.402750 -0.289225
0.844853 -0.317745 -0.017462
0.824100 0.066785 -0.475677
-0.394945 -0.097196 -0.459600
-0.297292 -0.092021 0.247130
-0.606323 -0.060764 -0.531653
-1.010772 0.126385 -0.061723
-1.077296 -0.113147 -0.004981
-0.035502 -0.154208 -0.334604
-0.561175 0.049879 -0.457007
-0.664354 -0.149346 0.153279
-0.361941 0.191370 0.251119
-1.061701 -0.202889 -0.083811
-0.495627 -0.353912 0.122985
-0.964874 0.177786 -0.162009
0.683162 0.015880 -0.472382
-0.520529 -0.146028 -0.537673
-0.799531 -0.533493 -0.294940
-0.787698 0.061874 -0.547755
-0.315776 0.038146 0.228105
-0.304661 -0.354688 -0.239827
0.635865 0.028453 -0.444971
1.027192 0.064469 -0.333442
-0.609397 0.261161 0.014001
0.759883 -0.519429 -0.309269
-0.301100 0.208730 0.130799
-0.959924 -0.196032 -0.275987
0.862609 -0.406630 -0.080802
0.956839 -0.292025 -0.064480
-0.211864 0.199438 -0.031417
-0.054313 -0.237278 -0.145338
0.311253 0.105280 -0.021159
-0.002874 -0.220948 -0.280986
0.763645 0.125505 0.024788
-0.255627 0.272424 0.020055
-0.085442 -0.089234 -0.323423
0.964617 0.049715 -0.494098
-0.791909 -0.291441 0.027698
-0.737434 0.148344 0.201217
0.352371 -0.283498 -0.095346
0.404415 -0.278183 0.104689
-0.914577 0.111266 0.099975
-0.421819 -0.407169 -0.222150
0.541034 -0.382292 -0.252357
-0.690010 -0.171635 0.131168
-1.008936 -0.191290 -0.186744
-1.014925 0.174634 -0.212787
-0.942605 0.214411 -0.246044
0.486861 -0.354980 -0.031743
-0.608034 -0.298918 -0.651549
0.206358 -0.164111 0.040483
0.329688 0.229037 -0.090292
0.353894 0.130619 0.018004
-0.155367 0.264785 -0.163348
-0.197804 -0.320341 0.155721
-0.105597 -0.332074 -0.011021
0.404610 0.352284 -0.102343
-0.764869 0.125616 0.236956
0.405602 -0.321360 -0.034501
1.064984 -0.027329 -0.208575
0.434637 0.063471 -0.328408
-0.417780 0.033606 0.350138
-0.495576 -0.376879 0.111514
0.605997 -0.310678 -0.429148
-0.551035 -0.239249 -0.597348
-1.100593 -0.019541 -0.086690
-0.279002 -0.225377 0.267823
-0.950985 0.171519 -0.443447
0.693060 -0.008128 -0.488994
0.992736 0.071688 -0.429108
-0.376242 0.405239 -0.141166
0.736504 0.179614 0.002423
-0.695386 -0.393664 0.017774
0.958621 -0.083613 -0.063514
0.587859 -0.370588 -0.354896
-0.543345 -0.366699 -0.491117
-0.097547 0.035041 -0.176649
-0.152479 -0.171249 0.010209
-0.144865 -0.389061 0.085425
-0.132258 0.127441 -0.235001
-1.020035 0.142591 -0.121945
-1.100560 -0.027055 -0.083667
-0.107595 -0.261718 -0.283772
-0.676956 0.159223 0.241169
0.543773 -0.046839 0.240672
0.740263 -0.467529 -0.145018
-0.105681 -0.255016 -0.301754
-0.143650 0.161810 -0.222669
0.385457 0.296141 -0.064987
-0.488713 -0.103361 0.251307
-0.889224 -0.324618 -0.354761
0.730401 -0.123871 0.110236
-0.251143 -0.375599 -0.112027
-0.681308 -0.358317 -0.682757
0.592428 -0.085069 0.202343
0.309039 0.093134 -0.014929
-0.897084 0.081422 -0.506761
-0.297352 -0.045316 0.228076
-0.465493 0.360125 -0.112160
-0.531852 0.033927 0.301577
-1.107049 -0.006660 -0.079964
-0.249194 -0.280700 0.235068
-0.938503 0.239099 -0.494402
-0.891153 0.228397 -0.226375
0.571431 -0.337961 -0.368802
0.398560 -0.299968 -0.156622
-0.722155 -0.193255 -0.647421
0.709577 -0.137901 -0.540140
-1.027449 0.144923 -0.137939
0.275695 0.238963 -0.171933
-0.800620 -0.478368 -0.069556
0.608023 -0.357414 -0.396331
-0.925354 -0.124780 -0.369546
0.755984 -0.028097 -0.527308
-0.640120 0.241831 0.035489
-0.985927 0.098019 -0.348274
-0.821406 -0.198372 -0.532748
-0.626866 -0.160435 0.163741
0.725403 0.083010 -0.440968
-0.217939 0.288051 -0.056478
0.551259 -0.033557 0.239071
-0.026018 -0.131571 -0.241360
-0.706760 -0.460351 -0.020452
-0.551783 -0.161175 -0.558601
0.602927 0.213326 -0.287141
-0.145197 -0.314929 -0.168007
0.359230 0.001165 0.124091
0.604946 0.109961 -0.384303
-1.098268 -0.002645 0.041354
-0.657172 -0.125411 -0.585719
-1.004573 0.039445 -0.289545
-0.470292 0.072381 0.347111
-0.369987 -0.477098 0.115008
-0.696575 0.332492 -0.306996
0.581798 -0.004214 -0.431283
-0.334236 -0.130115 -0.450142
-0.240447 -0.465886 0.175946
-0.258184 0.293709 0.016078
-0.826382 -0.292328 0.012530
-0.190796 -0.364690 -0.072323
-0.986660 -0.383190 -0.101391
-0.521030 -0.347606 -0.522023
-0.408600 0.327428 0.055388
-0.930701 0.187052 -0.148877
0.708320 -0.321547 -0.525548
0.874092 0.065444 -0.481094
0.407325 0.106977 0.109337
0.662040 -0.088266 0.159635
-0.127528 -0.301472 0.017226
-0.856871 -0.404833 -0.056787
-0.430953 -0.355308 -0.390149
-0.126705 -0.366890 0.042538
-0.045595 -0.085076 -0.224016
-0.526511 -0.177070 0.198280
-0.524903 0.218377 0.245343
-0.883538 0.055403 -0.521287
0.351921 -0.026763 -0.284996
-1.061898 -0.224299 -0.074660
-0.844448 0.154341 -0.525726
0.972784 -0.204406 -0.289008
-1.149478 0.027717 -0.015130
0.549253 -0.166146 0.191223
-0.751568 0.305450 -0.291409
-0.804231 -0.494246 -0.419414
0.666421 -0.162177 -0.514188
0.533183 0.091057 0.258579
-0.543069 0.273041 0.057972
0.378980 -0.096034 -0.297672
-1.006175 -0.227489 -0.031818
-0.411143 -0.468510 -0.023591
1.042623 -0.106034 -0.133112
-0.373243 0.146064 -0.328610
0.839958 -0.111586 -0.542036
0.669825 0.262632 -0.067611
0.992569 -0.145925 -0.306487
-0.786383 -0.555684 -0.211917
0.564382 -0.409917 -0.153179
0.682770 -0.286099 -0.513861
-0.331720 -0.320302 0.209809
-0.657194 -0.252076 0.104933
0.556630 -0.346111 -0.340773
0.448654 -0.085874 -0.355201
-0.837465 0.262365 -0.264502
-0.015000 -0.115721 -0.268365
-0.369705 0.232834 0.248550
0.877287 0.045784 -0.045077
-0.161638 -0.200226 0.039140
-0.261653 -0.263066 0.251011
0.609020 -0.432846 -0.250441
-0.505617 -0.462766 -0.154836
0.888532 -0.123942 0.000798
-0.576573 -0.356035 -0.563443
-0.915175 -0.279673 -0.324921
-0.298501 -0.303682 -0.386808
0.434133 0.071231 0.173386
-0.684372 0.255555 -0.406711
0.216992 -0.070451 -0.158158
-0.969226 -0.191524 0.001959
0.773353 -0.483200 -0.163920
-0.588792 -0.375967 -0.517833
-0.282259 0.306218 0.055739
0.750964 -0.363048 -0.472261
-0.374909 0.367825 -0.026303
0.810337 0.178838 -0.273859
0.421323 0.232721 0.032602
-0.598086 0.280001 -0.029402
-0.426028 0.267654 0.215330
-0.633934 -0.351657 -0.645824
0.360516 0.236594 -0.212478
-0.759723 -0.339533 0.017381
-0.813682 -0.592022 -0.134814
0.515214 -0.235834 -0.375778
-0.635715 0.128533 -0.449487
-1.096833 -0.100145 -0.060608
-0.184786 0.249615 -0.196304
0.238341 -0.206620 0.116789
0.690490 0.034146 -0.465023
-0.854612 -0.367147 -0.036965
-0.448115 0.202997 0.384442
-0.804266 0.217628 -0.089063
-0.187710 -0.256019 -0.397574
0.894878 -0.454632 -0.129708
0.909637 -0.132176 -0.014773
-0.614179 -0.102374 -0.555829
1.007208 -0.275894 -0.187242
-0.973772 -0.262238 -0.223054
-0.548130 0.304193 -0.042432
0.576950 -0.060113 0.217709
-0.286393 0.259167 0.082738
-0.866973 -0.156940 -0.464968
0.975976 -0.138486 -0.334924
-0.402351 -0.076829 -0.452572
-0.558761 0.169394 -0.396173
-1.106353 -0.029639 0.024394
-0.070670 -0.159411 -0.146859
-0.693240 -0.056312 0.187493
0.732951 -0.351093 -0.506093
-0.898488 -0.076661 0.089647
0.420487 -0.325526 -0.127377
1.038985 -0.259655 -0.109963
-0.981541 -0.023705 -0.306483
-0.006188 -0.224386 -0.274574
-0.810737 0.305272 -0.435806
0.222142 -0.090028 0.005613
-0.854441 -0.077994 -0.520683
0.730248 0.213654 -0.049373
0.524379 -0.208697 0.173211
-0.731006 0.195910 -0.456473
-0.992546 -0.134974 -0.240348
0.403733 0.216269 0.021024
-0.891830 -0.245532 0.007992
-0.349002 0.325656 -0.228393
-0.826539 -0.288765 -0.486103
0.325047 0.044343 0.044256
0.672951 0.213043 -0.281323
-0.071119 -0.162590 -0.354012
-0.682416 0.248718 -0.409296
0.405848 0.186467 -0.261084
-0.449598 0.032521 -0.418036
-1.127737 -0.075378 -0.013273
0.841675 0.167912 -0.254939
-0.451666 -0.131798 -0.501140
-0.265353 -0.137490 -0.424412
0.310149 0.221210 -0.111123
-1.007550 0.135792 -0.323544
-0.580763 -0.409436 -0.406837
-0.150146 0.201980 -0.147290
-0.717107 -0.540204 -0.175292
-0.394702 -0.030434 0.327951
-0.548683 0.031657 -0.460789
-0.652331 0.183798 0.196451
0.502988 -0.108830 0.240865
-1.025833 0.067216 0.099243
1.015786 -0.003237 -0.383503
-0.900946 -0.583281 -0.226807
-0.564439 -0.367780 0.086655
-0.543496 -0.463534 -0.198160
0.889473 -0.474407 -0.148012
-0.510582 0.075466 -0.422595
-0.503326 0.220231 0.265734
-0.238987 0.081898 0.067281
-0.014027 -0.218759 -0.301053
-0.286079 -0.195154 -0.462118
0.676850 -0.394622 -0.038507
0.487216 0.032480 0.275770
-0.652842 0.323948 -0.228428
-0.635528 -0.466860 -0.299002
-0.108074 -0.049343 -0.313130
0.593679 -0.041017 -0.448726
0.858613 0.065838 -0.038791
0.773577 -0.084245 -0.561433
-0.819606 -0.203262 0.059991
0.339592 0.150173 -0.016535
-0.860592 0.303848 -0.417949
-0.836805 -0.322715 -0.453071
-0.783408 -0.221853 -0.593809
-0.316678 0.238872 0.147414
-0.426819 -0.490167 0.023078
-0.292592 -0.322023 0.225660
-0.377641 -0.172068 -0.489673
0.733138 0.212851 -0.250353
-0.075883 -0.229468 -0.343183
-0.550529 0.247844 0.125257
0.311923 0.111157 -0.024724
-0.788091 -0.476466 -0.063253
-1.070405 -0.050498 0.029310
-0.427928 0.134617 -0.357695
1.025328 -0.231431 -0.196310
-0.933780 -0.446221 -0.221961
0.978468 -0.224961 -0.265528
-0.108744 0.159171 -0.209081
-0.210823 -0.388633 -0.023978
-0.926063 0.169077 -0.488813
0.919757 -0.460810 -0.140981
0.236186 0.071025 -0.200837
0.528872 0.219416 -0.272482
-0.288548 0.313804 -0.208503
1.063669 0.030671 -0.299116
-0.578697 0.369725 -0.277648
-0.776414 0.172810 0.080177
-0.635770 0.301864 -0.141002
-0.676077 -0.360013 -0.671318
-0.743488 -0.148966 0.119670
-0.309196 -0.049351 -0.399035
-0.888812 0.063095 -0.514629
-0.149191 0.068763 -0.094401
0.309372 -0.255031 -0.078941
-0.500682 0.267262 0.126548
-0.587173 -0.523511 -0.069234
0.694274 0.166021 -0.349284
-0.267623 0.281413 -0.215773
-0.205021 -0.262036 -0.400221
-0.614245 0.220545 -0.394277
0.626591 -0.010160 -0.457249
0.463672 0.194717 -0.276925
-0.222594 -0.260394 0.177244
-0.084325 -0.271728 -0.075362
0.390854 0.349012 -0.108764
-0.869953 -0.313510 -0.395175
-0.181981 -0.196869 -0.418515
0.963966 -0.162050 -0.054397
0.297325 -0.005391 -0.244625
-0.219286 -0.296343 -0.313559
-0.061078 -0.039286 -0.213999
0.854034 0.150528 -0.321966
-0.747132 0.308921 -0.406813
-0.325948 -0.316585 -0.380824
0.737865 -0.182219 0.091607
-0.360587 -0.327471 -0.389617
0.419264 0.245094 0.020337
-0.707361 0.014019 -0.537388
0.627007 0.117184 -0.386039
-0.878576 -0.101863 -0.465982
-0.312621 -0.294735 -0.430910
-0.793590 -0.199813 -0.583908
-0.652935 0.281010 -0.380547
0.401948 -0.207641 0.202748
-0.565389 0.310165 -0.081309
-0.507561 -0.342449 -0.521402
-1.041821 0.168168 -0.273067
0.694641 -0.092997 0.138098
0.828062 0.097093 -0.439616
-0.964118 -0.025619 -0.338115
0.984987 -0.159056 -0.306868
-0.937876 0.274515 -0.422293
0.180555 -0.030712 -0.096694
-0.218516 -0.387932 0.221993
-0.077283 -0.217874 -0.379964
-0.859664 0.154343 -0.532224
1.057501 0.007691 -0.241134
-0.712892 0.265720 -0.124527
-0.781953 0.135763 -0.508329
-0.672257 0.283893 -0.387356
-0.253826 0.009237 0.124706
-0.631138 0.181574 0.228724
-0.937724 0.243579 -0.497690
-0.547317 -0.522247 0.016677
-0.840268 -0.167294 -0.510406
0.448379 -0.253431 0.146122
0.873428 0.074300 -0.064130
-0.341338 0.112541 -0.331757
0.833870 -0.514608 -0.242897
-0.906520 -0.055140 -0.433164
-0.800006 -0.068824 -0.618410
0.653455 0.236181 0.047479
0.421783 0.333158 -0.043397
-0.941581 -0.089410 0.064862
-0.122292 -0.224331 -0.406762
-0.311316 -0.417058 -0.059040
0.601067 -0.187544 0.157450
-0.304631 -0.418722 -0.045946
0.927535 0.111176 -0.369730
0.531213 0.061348 -0.380319
0.007871 -0.190913 -0.280061
-0.683425 0.060300 0.250035
0.542047 -0.291556 0.094082
0.345905 0.244913 -0.201699
0.908303 -0.028352 -0.511787
0.258189 -0.234574 0.106658
0.342268 -0.286866 0.001605
-0.871084 -0.004672 -0.519804
0.200962 -0.171459 -0.049753
0.727644 -0.495526 -0.355312
0.522221 0.208626 -0.281591
1.070289 -0.228176 -0.137116
0.873417 -0.385839 -0.069195
0.944191 -0.037716 -0.067102
-0.850052 -0.062146 -0.535352
0.417189 -0.119464 -0.325052
-0.469038 -0.399007 0.111777
-0.799446 -0.382671 -0.497975
0.594003 -0.228699 -0.451338
-0.104722 -0.043843 -0.308946
-0.120982 0.127352 -0.170928
0.666115 -0.420147 -0.403914
-0.835727 0.193738 -0.054660
0.661614 -0.464591 -0.233304
-0.608412 0.285218 -0.359424
0.712259 -0.476837 -0.184435
0.196428 -0.103027 -0.019744
0.656851 -0.285392 -0.490688
-0.954268 -0.043719 -0.349013
0.183404 -0.050898 -0.134078
-1.014426 -0.179294 -0.011227
-0.820099 -0.385540 -0.458373
-0.150447 0.131159 -0.117668
-0.861316 -0.249384 0.019097
0.301019 -0.159539 -0.194812
-0.087138 -0.148381 -0.120747
-0.750841 -0.561000 -0.152991
-0.704687 0.322852 -0.287589
-0.474119 0.394651 -0.247309
0.557972 0.091311 0.238856
0.295249 -0.199042 0.189073
-0.531012 0.244490 -0.346745
-0.118950 -0.071633 -0.328928
-0.662566 -0.329682 -0.690234
0.718760 -0.019488 0.123933
-0.249245 -0.329465 -0.249395
0.856712 -0.337959 -0.346338
-0.963313 -0.208691 -0.004105
0.329187 0.205643 -0.073131
-0.131781 -0.283685 -0.246421
-0.508030 0.343951 -0.287162
-0.109742 0.023554 -0.277366
-0.871341 -0.132512 0.073295
0.633418 0.258905 -0.203481
0.567857 0.303476 0.070289
-0.807247 0.174237 -0.499882
0.950409 -0.368252 -0.090305
0.598388 -0.154905 0.174462
-1.101101 0.113636 -0.131989
-0.581442 0.197746 -0.391674
-0.662445 0.205483 0.118620
0.809068 0.075946 0.010050
0.395830 -0.316289 -0.076712
-1.024399 0.197919 -0.294694
0.523802 0.027618 0.265655
-0.718275 0.040513 -0.528793
0.587559 -0.358368 0.007503
-0.450934 0.333996 -0.267756
-0.890118 -0.349463 -0.342902
-0.690578 0.121615 -0.476381
0.775588 0.152786 -0.019319
-1.136918 0.010411 -0.031396
0.467661 0.095779 0.200651
-0.580584 0.317402 -0.121529
0.304747 0.015574 -0.251079
0.409361 0.008256 0.187450
0.528435 0.103815 0.260908
-0.363148 0.170136 0.262079
0.388001 -0.311694 -0.073935
-0.804456 0.089818 0.213111
-0.422379 -0.423741 -0.172656
0.940098 0.018477 -0.503899
0.466646 0.362136 -0.003963
-0.342023 -0.221188 -0.499039
-0.278560 0.094064 0.135916
-0.222626 -0.369512 -0.096088
-0.801675 -0.382088 -0.494067
-0.719321 -0.547177 -0.069263
-0.600248 0.041127 0.275967
0.503007 -0.372940 -0.179237
-0.428039 -0.429483 -0.162095
-1.016629 0.041856 -0.268103
-0.676879 0.129290 0.287351
-0.649952 0.247815 -0.395883
-0.405608 0.269616 0.233999
-0.369538 0.417836 -0.191040
-0.679345 -0.511124 -0.217812
0.471647 0.327578 -0.130006
-0.990719 -0.351666 -0.087351
-0.882481 0.257758 -0.304806
-0.871929 -0.339238 -0.380941
0.993757 0.047171 -0.452182
-0.282914 0.200586 -0.262748
-0.097642 -0.183852 -0.086646
-0.119982 -0.071332 -0.329218
0.632828 -0.365273 -0.419849
-0.034603 -0.124860 -0.319536
-0.259946 0.296665 0.018143
-0.263975 0.157670 -0.276133
-0.613181 -0.228075 -0.618300
-0.715367 -0.509155 -0.267186
0.529870 0.284685 -0.190350
-0.954603 0.167492 -0.118470
0.860304 -0.378142 -0.310754
-0.568506 -0.398731 -0.424472
-0.098614 -0.103071 -0.117988
-0.542097 0.153081 -0.397219
0.294841 -0.119316 0.127686
-0.340222 -0.194378 0.269187
-0.867519 -0.296686 -0.406606
-0.916673 0.026878 -0.447931
0.167087 -0.132234 -0.053524
-1.051616 0.000117 0.062662
-0.904058 -0.208674 -0.374740
0.198188 0.044616 -0.171927
0.776093 -0.353464 -0.445103
-0.993632 0.196896 -0.254518
-0.988187 -0.428454 -0.128025
-0.641148 -0.357089 0.059241
0.397234 0.034255 -0.312719
-0.743629 0.198487 -0.460576
-0.493116 0.367907 -0.268805
0.752065 -0.514748 -0.296462
-0.834998 -0.076530 -0.557456
0.877921 -0.054951 -0.533170
0.580166 0.167193 -0.332129
1.020359 -0.047307 -0.140254
-0.824190 0.205582 -0.076609
-1.003216 -0.240393 -0.037011
0.687746 0.182108 0.066797
0.381831 -0.288847 -0.148853
-0.208213 0.197471 -0.232401
0.697789 -0.313165 0.040739
-0.639279 0.261285 -0.022389
-0.694456 0.216290 -0.430665
-0.483679 -0.199716 0.205243
0.346060 -0.125581 -0.259376
0.631978 -0.167779 0.152488
0.884168 -0.346038 -0.302512
-1.160198 0.022444 0.006980
-0.768435 -0.106858 0.130085
-0.287972 -0.061275 0.217172
0.867217 0.140390 -0.341348
-0.349714 -0.402533 -0.149285
0.868523 0.106345 -0.420215
0.326951 0.181800 -0.228444
-0.037475 -0.250917 -0.171069
-1.001093 0.114624 -0.014454
0.530925 0.173648 0.228024
0.557068 0.167814 -0.325691
-0.770924 -0.553216 -0.200759
0.741545 -0.229815 -0.569466
0.753057 0.188578 -0.038750
0.560812 -0.408394 -0.157335
0.481150 -0.282341 -0.308005
-0.951125 0.021278 -0.381534
0.618927 0.115395 0.180926
-0.985519 0.054128 0.117918
-0.723801 0.220801 -0.001698
-0.245180 0.220619 0.021877
0.279206 -0.161203 -0.168370
0.641883 0.267198 0.002626
-0.541629 -0.532225 0.012032
0.405293 -0.264959 -0.226882
0.423871 0.224108 -0.242572
-0.430180 -0.133380 0.261286
-0.438246 0.224414 0.331503
0.444050 -0.259103 -0.283271
0.253845 0.029594 -0.042166
0.745610 0.191079 -0.297996
-0.466173 0.146576 -0.368045
0.658163 0.111911 0.145492
-0.806043 -0.231707 -0.547651
0.220861 -0.211353 0.004305
-1.082737 -0.057053 -0.104517
0.719481 -0.497048 -0.297971
-0.313428 -0.169427 0.293115
0.395536 -0.086426 -0.313192
-0.050880 -0.258799 -0.224259
0.917605 0.124187 -0.323746
0.926465 -0.190824 -0.362912
0.748004 0.170112 -0.338100
-0.337721 0.007518 0.281502
-1.001465 0.081598 -0.312626
-0.947267 -0.225824 -0.287311
0.860135 -0.480054 -0.151154
-0.953435 -0.323104 -0.235914
0.576001 0.146531 0.209679
0.503910 -0.001589 -0.385812
-0.715395 -0.268874 -0.682372
-0.274943 -0.141481 -0.430505
0.488473 0.196241 -0.283491
1.048416 0.034608 -0.276049
0.679405 -0.187564 -0.524197
-1.082788 -0.175663 -0.038608
-0.559087 -0.376398 0.084629
-0.140222 0.126285 -0.134692
0.736952 -0.433391 -0.437815
-1.055658 0.006173 0.063966
0.413875 -0.221956 0.185633
-0.749400 0.338702 -0.392880
-0.203038 -0.249582 -0.435532
-0.539592 0.054286 -0.445583
0.976142 -0.273298 -0.231840
-1.103498 0.084609 -0.124023
0.673242 -0.191889 -0.519674
-0.341668 0.427846 -0.167936
-0.569086 0.143796 -0.413392
-0.949877 -0.365939 -0.224957
0.866220 -0.158747 0.016372
-0.181473 0.005979 -0.008574
-1.104642 -0.066041 0.006910
-0.881486 -0.223811 -0.410525
0.649681 -0.456065 -0.202444
-0.465641 0.229966 0.281681
-0.505920 -0.333630 -0.546119
-0.264922 -0.216527 0.237997
-0.270128 0.423569 -0.068773
-0.278307 -0.164465 0.241536
-0.396587 -0.495937 0.076979
-0.223908 -0.259286 -0.431308
-0.025130 -0.068624 -0.268844
0.720300 -0.094025 0.121159
-0.177668 0.194168 -0.221007
0.508721 -0.020096 -0.392616
0.802201 0.145835 -0.049342
0.655085 0.129904 0.140439
-0.380192 0.378093 -0.215477
-0.769148 -0.579019 -0.120506
-0.745873 -0.255892 0.065148
-0.104559 -0.312725 -0.020893
0.635220 -0.135018 -0.490797
-0.357057 -0.492066 0.112902
-0.352056 -0.233177 0.244718
-0.876693 0.149736 0.029175
-0.745865 0.055318 0.220873
0.798481 -0.456681 -0.335640
-0.873744 -0.147247 -0.456348
-0.808041 0.266570 -0.241769
-0.481964 0.272220 0.134098
-0.354788 0.069997 -0.358789
1.020285 -0.189559 -0.095698
-1.108821 0.102014 -0.106109
-0.710910 -0.391785 -0.617118
-0.186454 -0.282833 0.119212
-1.018510 -0.020922 -0.238842
0.207067 -0.209782 0.046177
-0.879523 -0.596810 -0.199668
-0.638568 0.170432 0.253500
0.733317 0.196685 -0.019099
0.934139 0.081268 -0.159100
-1.058274 -0.244145 -0.073258
-0.148295 -0.153222 -0.382286
-0.515390 0.191237 0.338966
-0.151476 0.153178 -0.124790
-0.212389 0.259041 -0.054899
-0.788961 -0.045530 0.152004
-0.146697 0.000983 -0.304444
0.856629 -0.413087 -0.084263
0.689853 -0.110508 -0.522575
-0.954842 -0.237730 -0.015018
-0.051693 -0.232460 -0.152191
0.477084 0.036209 0.259026
0.596966 -0.377915 -0.022409
0.340977 0.117481 0.010307
-0.880286 -0.162721 -0.437827
-1.027858 -0.328790 -0.095113
-0.848532 -0.541720 -0.329087
-0.701625 0.154126 0.226867
-0.462403 -0.160531 0.233938
0.385458 -0.118021 -0.297894
0.960241 -0.290074 -0.240853
0.653536 -0.447685 -0.153256
0.292180 0.064578 -0.239943
0.949557 -0.434424 -0.128995
-0.096653 -0.245225 -0.320513
-0.413440 0.408795 -0.196762
-0.927342 -0.137867 -0.360476
0.729418 -0.287272 0.047710
-0.254122 -0.191645 0.207691
0.386355 0.117886 -0.284182
0.710680 0.228085 -0.225122
-0.347499 -0.395361 0.165512
0.947818 0.098377 -0.224618
-0.391125 -0.100945 0.294197
-0.394729 0.010586 -0.405577
0.267069 -0.038813 -0.214978
-0.503710 0.252870 0.166466
0.759562 0.195688 -0.066526
-0.420176 0.306150 0.105848
