ply
format ascii 1.0
element vertex 1680
property float x
property float y
property float z
end_header
0.735143 -0.082886 0.208542
0.474869 -0.151173 -0.661390
-0.663999 0.051100 -0.148860
-0.473475 0.197840 0.015407
0.358507 0.190863 -0.346004
0.635641 0.180285 0.201869
-0.582940 -0.188130 0.057273
0.721072 0.173340 0.512270
0.592032 0.181033 0.020593
-0.581948 0.181323 0.648228
0.215750 0.037169 -0.356280
0.372168 -0.166500 -0.060838
-0.559167 -0.076473 -0.563487
-0.291880 0.134053 -0.240739
-0.546707 -0.049294 -0.657283
0.310112 0.068573 0.012793
0.667628 -0.153066 0.153217
0.525798 0.120178 -0.597039
0.579928 -0.193558 0.568164
0.438384 0.020909 0.615405
0.628603 -0.180985 0.178013
0.515570 -0.001379 -0.670818
0.632537 -0.158831 0.033568
0.797862 0.096651 0.509960
0.743039 -0.058196 0.201286
0.552558 -0.194001 0.442321
0.632071 0.080310 -0.241520
0.210830 -0.033273 -0.600227
-0.417697 0.130691 0.315566
-0.336615 0.145373 -0.096663
0.660080 0.102290 -0.070513
0.219103 -0.019485 -0.330585
0.662542 -0.189446 0.417591
0.358578 -0.030155 -0.634452
-0.690943 -0.186515 0.504376
0.652648 0.116599 -0.061084
-0.526721 -0.183862 -0.233414
0.302037 0.130211 -0.181903
-0.574633 0.111605 -0.413250
-0.544816 -0.188606 -0.101397
0.490833 -0.170577 0.423138
-0.773941 0.064627 0.343882
0.669600 -0.144001 0.117124
0.475015 -0.161303 -0.631824
-0.325947 0.028842 0.125609
-0.386008 0.198567 -0.598014
-0.205402 -0.095383 -0.492795
0.741415 0.001671 0.155956
-0.726496 0.142081 0.354034
0.269272 0.123135 -0.297673
0.258201 -0.100248 -0.276951
-0.780222 0.084268 0.405959
0.658749 -0.052392 -0.169991
-0.407611 0.015872 0.484618
0.708836 -0.083842 0.096915
0.585652 -0.147808 -0.227279
-0.508555 0.192253 -0.207344
0.637221 -0.110712 -0.145704
0.383494 -0.082371 0.304648
-0.813185 -0.089939 0.594664
-0.708397 0.028576 0.618937
0.388640 -0.199999 -0.478093
-0.385942 -0.073937 0.331085
-0.303839 -0.187342 -0.536539
0.453207 -0.169695 0.267035
-0.221172 -0.074820 -0.381786
-0.422324 -0.007254 0.550347
0.522661 -0.107397 -0.649812
-0.276922 -0.004822 -0.077022
0.423538 -0.109814 0.410625
-0.375246 0.012093 0.346073
-0.315908 0.126103 -0.624567
0.414053 -0.017744 0.511729
0.726483 -0.158377 0.436511
0.347282 -0.144776 -0.047827
-0.534771 0.050214 0.659157
0.472101 0.192321 -0.363663
-0.568248 0.065374 0.651402
0.493430 -0.174364 0.405749
-0.645418 -0.062531 -0.214059
0.396922 -0.174515 -0.012069
-0.546463 -0.173694 0.639932
-0.667007 -0.169184 0.628525
-0.476311 0.189245 -0.388976
0.540885 -0.056447 -0.673726
0.578480 0.189799 0.059365
0.824170 -0.062551 0.557633
0.638145 -0.109237 -0.146015
0.409501 -0.108554 0.353668
-0.182052 0.030378 -0.496599
0.671820 -0.037117 -0.129119
0.614520 -0.022411 -0.386292
0.786592 -0.137837 0.595043
-0.208370 -0.013723 -0.374792
-0.322604 0.134732 -0.110832
-0.379690 -0.198668 -0.621475
0.664869 0.005389 -0.174200
-0.385220 0.199874 -0.464078
0.495222 0.166415 -0.512198
0.307729 0.095064 -0.050290
-0.738763 0.064349 0.191600
0.552374 0.014349 -0.657872
0.619535 -0.118484 -0.197966
0.595563 -0.199934 0.389794
0.543463 -0.194928 -0.010696
-0.552114 0.080920 -0.585498
0.342535 -0.046946 0.181723
0.407193 0.198887 -0.494027
-0.555912 -0.179043 0.636319
-0.223897 -0.045767 -0.329189
0.631638 -0.196012 0.392180
-0.370396 0.197594 -0.422449
0.334666 -0.036163 0.157905
0.384121 0.190124 -0.225187
-0.232635 -0.051413 -0.297733
-0.452696 -0.193910 0.012834
0.368448 0.189100 -0.279323
0.446026 -0.170510 0.230190
-0.547332 0.092689 -0.581000
-0.684555 0.184720 0.456966
-0.489348 0.194172 -0.258368
-0.754972 0.124995 0.408854
0.659188 -0.176378 0.269380
0.309299 -0.008200 -0.623037
-0.201829 0.025151 -0.407976
0.633174 0.192153 0.636362
-0.183446 -0.008109 -0.481025
0.490225 -0.186214 -0.365543
-0.270304 -0.009185 -0.106272
0.402874 0.165865 0.075922
0.535191 0.195810 -0.028539
-0.371264 0.163330 -0.044260
0.609379 -0.198183 0.353008
-0.467492 -0.147178 0.459748
-0.503779 0.199899 0.044507
-0.565027 0.176236 0.652148
0.198397 -0.051345 -0.597347
-0.194619 -0.034651 -0.445468
-0.356340 0.188363 -0.322275
-0.174185 -0.046819 -0.544900
0.546564 -0.126983 -0.483688
-0.184528 -0.098313 -0.590096
-0.398644 0.011991 -0.643733
-0.188377 -0.102954 -0.585454
0.646121 0.198538 0.523820
0.283704 0.110125 -0.193938
-0.437628 -0.088267 -0.652763
-0.638021 0.195295 0.635239
0.183046 0.030446 -0.492353
0.833298 -0.053919 0.590005
0.489359 0.196681 -0.206719
-0.648943 0.172883 0.197391
0.406729 -0.068255 0.430398
0.325644 -0.175007 -0.323690
-0.362972 -0.003910 0.294540
0.597809 0.011251 -0.462614
-0.463278 0.175223 0.268742
0.565160 0.188877 -0.010151
-0.504798 -0.026032 -0.668323
0.487091 0.138713 0.582724
0.646541 0.157470 0.086229
-0.699339 -0.158452 0.319761
0.415880 0.171883 0.089979
-0.480585 -0.196211 0.087872
-0.619283 0.194491 0.308366
-0.714587 0.049069 0.617503
0.313764 0.170151 -0.338190
0.737792 -0.040724 0.158853
-0.681903 0.072420 -0.040841
0.497227 0.084033 0.667854
-0.689309 -0.120673 0.110481
0.559765 -0.061109 -0.585867
-0.256982 0.156844 -0.610918
0.414672 0.126683 0.317437
0.218810 0.115656 -0.602075
-0.675234 0.180317 0.373085
-0.595280 0.061120 -0.432535
-0.544082 0.198096 0.312302
-0.541006 0.148519 -0.416537
0.525175 -0.159829 0.641439
-0.535047 0.110156 -0.588418
-0.208401 -0.051910 -0.599664
0.356484 -0.194053 -0.405040
0.425835 0.196686 -0.159486
0.751061 0.109514 0.342239
0.452442 -0.199082 -0.290117
-0.489528 0.199324 -0.117998
-0.738907 -0.020419 0.149731
0.221709 0.062032 -0.602747
0.322854 -0.072857 -0.626177
0.618694 0.199998 0.516231
0.315617 -0.114028 -0.067874
-0.563086 -0.182291 -0.092266
-0.706305 -0.150818 0.619422
0.762127 -0.100221 0.364639
-0.446018 -0.185788 0.095086
-0.525048 -0.072263 0.661409
0.561431 0.199952 0.284573
0.747945 0.021821 0.609776
-0.461993 0.108037 0.581751
-0.443650 0.194286 -0.032937
-0.565037 -0.021255 -0.600473
-0.732944 0.101270 0.241368
-0.739493 -0.153374 0.465083
-0.421485 0.115358 0.385029
-0.290624 0.111054 -0.166798
0.525374 0.023700 -0.673089
0.204143 -0.014165 -0.393173
-0.385242 0.199884 -0.525611
0.422510 -0.199998 -0.338580
0.470874 -0.198994 -0.036944
0.610883 0.091923 -0.308421
0.500268 -0.191664 -0.252038
0.564547 0.142563 -0.342927
-0.703726 0.187335 0.569114
-0.709541 0.085798 0.104016
-0.230722 -0.116211 -0.441173
0.736017 -0.080821 0.208206
-0.482078 -0.142063 0.546451
-0.747204 0.089450 0.274498
-0.325209 0.157447 -0.208055
-0.551599 0.162679 -0.292795
-0.778263 -0.072640 0.375516
0.351497 -0.177745 -0.234788
0.448425 0.080985 0.587696
0.265412 -0.162459 -0.495800
-0.735194 -0.073240 0.190630
-0.265684 -0.177866 -0.606277
0.661042 -0.078251 0.629907
0.589019 -0.079903 -0.428162
-0.353840 0.033478 0.242782
0.196085 -0.015382 -0.428361
-0.685174 0.184445 0.456719
-0.468809 0.177041 0.277636
-0.409628 0.199191 -0.310499
-0.542451 -0.116301 -0.537747
0.449539 0.181226 -0.592725
0.476712 -0.104670 0.654657
-0.207683 0.097625 -0.599498
0.483429 0.187134 0.241195
-0.258722 0.138281 -0.401301
0.241693 0.073159 -0.290267
-0.315220 -0.124873 -0.105406
-0.304323 -0.130648 -0.173704
-0.750085 -0.089892 0.287918
0.697239 0.164752 0.349019
0.702937 -0.078103 0.620202
-0.462359 0.045068 0.675931
0.721149 -0.146467 0.351199
-0.786677 -0.019832 0.355685
-0.524789 -0.178954 -0.288727
0.578531 0.169530 -0.131191
-0.388448 -0.153050 0.088945
0.423580 -0.088145 -0.649509
-0.386839 -0.061800 0.354369
-0.542768 -0.192057 -0.062658
0.753855 -0.124904 0.403709
-0.764223 0.096003 0.606005
0.268076 -0.101914 -0.238648
0.740562 -0.167987 0.557534
-0.789156 -0.038981 0.379019
0.697034 0.154375 0.287131
0.225161 -0.066064 -0.349962
-0.780452 0.023811 0.330749
-0.405228 -0.099097 0.360689
-0.292105 0.187957 -0.594584
0.782955 0.086979 0.423450
-0.666207 -0.014924 -0.166274
0.357925 0.138499 0.026031
-0.685882 -0.047600 -0.058343
0.244182 -0.037074 -0.233463
-0.503757 0.167181 -0.470225
-0.342701 -0.162345 -0.161444
-0.244147 0.028791 -0.607944
0.421503 0.197747 -0.206229
-0.702921 -0.107008 0.127268
-0.778038 -0.145826 0.593752
-0.350431 0.188456 -0.348935
0.653874 0.198780 0.566529
-0.538560 0.063556 -0.673853
-0.619710 -0.148023 -0.079203
-0.657191 -0.194695 0.475815
-0.485566 -0.199666 -0.011114
-0.160043 0.002284 -0.581385
-0.369075 -0.163322 -0.053664
-0.644562 -0.111409 -0.111950
0.404281 0.154247 0.150929
-0.495843 0.172601 0.429784
0.754316 -0.112503 0.608301
0.553423 0.189258 0.517168
0.606478 0.196057 0.284551
0.649046 0.165365 0.632686
0.279271 -0.113015 -0.221683
0.633907 0.090430 -0.212414
-0.334847 0.196820 -0.555558
0.625706 -0.199110 0.459169
0.689265 -0.054947 -0.035099
-0.520338 0.172176 0.538733
0.256118 0.130318 -0.380541
-0.491578 0.135438 0.615757
0.664670 -0.174172 0.629067
0.689412 0.113200 0.087053
0.659805 -0.182486 0.327191
-0.598097 -0.013069 -0.460879
0.729121 0.132987 0.327161
0.300673 0.189766 -0.580627
0.810784 0.005262 0.455694
0.373346 0.007522 0.338867
0.793344 0.047574 0.599260
-0.692388 0.166560 0.339923
-0.243277 0.029294 -0.607743
-0.653421 0.056133 -0.188320
0.698580 0.135004 0.203382
0.583091 0.199976 0.372299
0.626577 0.197692 0.412163
-0.802130 0.050849 0.447151
-0.608008 -0.027417 -0.411620
0.496905 -0.145134 0.596418
0.468288 0.146367 0.467063
-0.732422 -0.009718 0.118150
-0.376940 0.081838 0.277417
-0.698758 0.076400 0.038986
-0.392732 0.194746 -0.261265
0.809218 -0.036544 0.595583
0.498305 -0.181367 0.366230
0.593513 -0.088808 0.645550
0.346180 -0.117004 0.054733
0.739031 -0.118683 0.318546
-0.669372 0.145454 0.122889
0.203498 -0.075543 -0.598528
0.257986 -0.074720 -0.222685
-0.321618 -0.114019 -0.041938
0.597661 0.179571 0.031390
-0.704456 -0.122013 0.180406
-0.340742 -0.156399 -0.135123
-0.632480 0.039901 -0.296528
0.693332 0.190533 0.565165
0.701620 0.035460 -0.001829
0.663348 0.100652 -0.060675
-0.718191 -0.089442 0.149230
-0.539221 -0.076205 0.658126
0.568497 -0.179860 -0.091893
-0.434065 -0.199622 -0.339101
0.313656 0.183973 -0.456825
-0.515820 -0.177284 -0.341939
0.315485 0.171881 -0.343403
-0.442834 -0.054845 0.605498
-0.360804 0.076518 0.217922
-0.693016 -0.063748 -0.006786
0.751884 -0.056398 0.237084
-0.291371 0.088928 -0.106816
-0.492235 0.145557 0.574275
0.648473 -0.066512 -0.194859
-0.384717 0.062699 0.343904
0.718170 -0.035369 0.069545
-0.363524 -0.186105 -0.264592
-0.299230 -0.036963 -0.620704
-0.441790 -0.068767 0.580927
-0.320837 -0.128978 -0.096099
0.374487 -0.050011 0.316264
-0.377525 0.016778 0.354412
-0.602032 -0.199345 0.368807
0.376093 -0.077568 -0.638509
-0.669112 -0.100728 -0.035595
-0.411394 -0.065877 0.454287
0.422679 0.199947 -0.313364
-0.226796 -0.074283 -0.356555
0.741390 -0.003356 0.155943
-0.278483 -0.039149 -0.087171
0.249388 -0.152236 -0.507106
0.464783 0.199617 -0.097234
-0.605105 0.146973 -0.147336
-0.767818 -0.126160 0.468474
0.386558 0.076982 0.328246
0.546195 0.192341 -0.043495
-0.769532 -0.120909 0.457595
-0.516623 -0.194847 -0.128115
0.561758 0.090447 -0.523841
0.624170 0.011534 -0.348741
-0.564157 -0.194817 0.076513
0.718033 0.126519 0.254851
0.539630 -0.167829 -0.310957
-0.426485 -0.178215 0.084872
0.451767 0.196616 -0.370567
-0.543270 0.072555 -0.639082
-0.521553 0.187744 -0.212431
0.378244 -0.186951 -0.210732
-0.784558 0.082715 0.421520
-0.484719 -0.097869 -0.663671
0.684642 -0.098024 0.024587
0.331528 0.099048 0.042651
-0.444007 -0.196224 -0.070319
0.629746 -0.199990 0.569094
0.362780 -0.022134 0.288435
0.314162 -0.193012 -0.570028
0.708736 0.010076 0.015976
-0.285226 -0.058986 -0.080340
-0.585560 0.033391 -0.504453
0.362492 -0.153006 -0.022872
0.398430 -0.199999 -0.435421
-0.571038 -0.050405 -0.550978
0.717073 -0.104102 0.180363
-0.444655 -0.056018 0.611856
-0.440342 -0.199974 -0.271708
0.498709 0.144232 0.608395
0.291717 -0.023431 -0.618964
0.782121 0.004243 0.331851
-0.407998 -0.167459 0.087388
0.663342 -0.130659 0.034155
0.661193 0.195117 0.501229
-0.770369 0.125852 0.478384
-0.219383 0.080283 -0.399694
0.751322 0.108306 0.339891
-0.285023 -0.078968 -0.113800
0.719489 0.045228 0.616368
0.477541 -0.167779 0.385427
0.636019 0.031605 -0.287931
0.373186 -0.085612 0.253502
-0.519591 -0.198401 0.196402
-0.286796 -0.114665 -0.617824
-0.357368 -0.018137 0.266863
-0.687986 0.014303 -0.072459
-0.689541 -0.048589 -0.041459
-0.342130 0.176225 -0.262422
0.653625 -0.183501 0.310713
0.522580 -0.143175 -0.521330
-0.423287 0.193845 -0.549342
0.614407 0.197424 0.352110
0.542361 0.131438 0.657399
0.742998 0.145992 0.443264
0.185348 0.017197 -0.475368
-0.650354 -0.197394 0.506473
-0.202857 -0.013711 -0.398588
0.782995 0.133216 0.560642
0.175644 0.033568 -0.526552
0.390226 0.069291 0.357476
-0.706724 -0.086243 0.619325
0.371904 -0.051261 0.303664
-0.294244 -0.021008 -0.006888
-0.628732 -0.039088 -0.313431
-0.318871 -0.043482 0.083129
-0.527818 0.090870 -0.669408
0.479837 -0.197644 -0.222671
-0.755640 0.046906 0.242055
-0.400330 0.114046 0.297772
-0.358228 0.093642 -0.634371
0.702729 -0.165429 0.377108
0.266617 -0.166419 -0.515958
-0.536162 -0.198483 0.047151
-0.432405 0.194675 -0.494952
0.634049 -0.171720 0.124347
-0.401436 0.083882 0.379044
-0.267163 0.083061 -0.613276
-0.714365 -0.052624 0.070381
-0.546445 0.194281 0.410932
0.252061 0.149793 -0.483100
0.521667 -0.089324 0.662192
0.639972 -0.077643 0.634788
0.579083 0.005487 -0.544520
-0.562426 -0.194763 0.068009
-0.325478 0.162963 -0.239622
-0.661509 0.177760 0.291064
0.379112 -0.188750 -0.228822
-0.792726 -0.104336 0.507587
-0.734054 0.118995 0.298083
0.176479 -0.032186 -0.521925
0.596681 -0.082758 -0.389453
0.244183 -0.115077 -0.379501
0.800931 -0.012376 0.414553
0.651691 -0.194494 0.632073
-0.413230 -0.171211 0.083508
0.652888 0.151032 0.079037
0.329800 -0.194782 -0.533615
-0.434287 0.063745 0.556354
0.793770 0.003656 0.382088
-0.262801 0.056740 -0.174141
0.738156 0.126950 0.343286
0.747239 -0.151319 0.487811
-0.497495 -0.197195 0.137098
0.722405 0.044918 0.096501
-0.621214 0.152884 -0.048105
0.313725 -0.088881 -0.010213
-0.721158 0.126190 0.267155
-0.540668 -0.055889 -0.675384
0.728831 -0.136293 0.614204
-0.469611 -0.184471 -0.473584
-0.677225 -0.096517 0.626158
0.505321 0.199873 0.054524
-0.566542 0.105987 -0.464315
-0.552514 0.189463 0.510575
-0.419391 0.197847 -0.477679
0.551476 -0.192017 -0.025665
-0.535392 -0.175118 0.580896
-0.760844 0.001719 0.239830
0.574742 -0.156227 -0.230687
-0.564308 0.167215 -0.208601
-0.605788 -0.018477 -0.425783
-0.316455 -0.029072 0.084484
0.440203 0.025938 0.620629
-0.457461 -0.195765 -0.002216
-0.392385 -0.172392 -0.015264
0.597290 0.096369 -0.356590
-0.310099 0.021201 0.061467
0.391207 -0.042310 0.396540
-0.701366 -0.093041 0.084772
-0.576699 0.085412 -0.470263
-0.475509 -0.189712 -0.386319
0.402653 -0.199937 -0.442435
-0.508720 0.184125 0.383682
0.202951 -0.065126 -0.444397
0.559530 -0.154087 -0.308016
0.289034 0.054856 -0.058465
-0.398957 0.133112 0.225254
0.477464 -0.171752 0.356806
-0.421398 -0.126971 -0.649004
0.315716 -0.038215 0.074381
0.755118 0.073851 0.277712
0.604812 0.043980 -0.412092
0.206968 0.043323 -0.599332
0.568774 0.128874 -0.380834
0.699957 0.135147 0.209909
-0.677921 0.183207 0.412607
-0.310755 0.006049 0.068887
-0.641786 0.185793 0.284027
0.785261 0.083768 0.426688
0.395216 0.172162 -0.001309
-0.613150 0.199800 0.528089
-0.528033 0.199929 0.144549
-0.498796 0.169905 -0.472738
0.683935 -0.153940 0.228250
-0.602036 -0.105971 0.643575
-0.638849 0.124702 -0.093481
0.580167 0.158275 -0.195713
-0.267380 -0.142908 -0.384193
0.423173 0.192270 -0.575663
-0.577664 0.187567 0.642879
-0.228580 0.091507 -0.383659
0.479932 -0.198866 0.007607
0.260760 -0.048402 -0.172882
-0.760981 -0.039941 0.606757
-0.279166 0.156613 -0.402136
-0.337051 0.135056 -0.049781
0.205034 0.018521 -0.390910
0.320654 0.117982 -0.058607
0.534003 -0.199912 0.173015
0.711930 0.096389 0.138354
-0.495222 0.027352 -0.666104
0.679677 0.067024 -0.059346
-0.606026 0.108843 -0.285809
-0.696939 -0.191077 0.588405
0.609316 0.052004 -0.383857
0.376854 0.049427 0.327147
-0.510671 0.189190 0.333490
0.759594 0.085491 0.319452
0.721471 -0.003105 0.069935
-0.679537 0.006170 -0.110777
-0.472079 -0.065955 0.673679
-0.372548 0.132166 0.114959
-0.280134 -0.153103 -0.616281
0.686837 -0.052362 -0.048774
0.304630 0.102845 -0.083304
0.587153 0.198216 0.258122
0.719477 0.183227 0.592201
0.608574 -0.027685 0.642061
-0.526444 -0.173633 -0.325667
0.649649 -0.166499 0.155016
-0.582538 -0.049724 -0.502114
-0.274887 0.106664 -0.222111
-0.272900 -0.141674 -0.354826
-0.659676 -0.138243 0.048865
-0.426679 -0.192350 -0.073754
0.664464 -0.195318 0.519336
-0.310715 0.092890 -0.623364
-0.527290 0.169783 0.586225
-0.632056 -0.189405 0.636621
0.186064 -0.062518 -0.513407
0.469456 -0.171811 -0.585516
-0.479006 -0.181726 -0.460729
-0.649948 0.071940 -0.179617
-0.308174 -0.023759 -0.622776
0.591669 -0.197701 0.261753
0.248313 0.156886 -0.536850
0.382265 0.067242 0.326407
-0.641342 -0.132244 -0.054695
0.351529 -0.139456 -0.005681
0.682685 -0.065454 -0.048803
0.744323 0.116021 0.332841
0.495306 0.197466 0.120374
-0.208914 0.091073 -0.467571
-0.606394 -0.183151 0.103255
0.651083 -0.178172 0.249610
0.257276 -0.050210 -0.189960
-0.531139 0.098381 -0.637190
0.332892 -0.115955 0.000699
0.723018 0.155877 0.407484
-0.449504 -0.056060 0.632737
0.673064 -0.067594 -0.086994
0.495783 -0.163140 -0.530879
0.660936 0.169554 0.224718
-0.588127 0.177456 -0.028327
0.729009 -0.056400 0.614163
-0.796387 0.098782 0.508882
-0.568417 -0.199007 0.207162
-0.501251 -0.196118 -0.168360
0.202332 0.033936 -0.411618
-0.592868 -0.101818 -0.361902
0.392251 0.174363 -0.031030
-0.362613 0.199959 -0.611083
-0.298015 0.119299 -0.160638
-0.349196 0.157159 -0.102880
0.539158 -0.182823 -0.190292
-0.201785 0.011376 -0.402562
0.429384 0.169723 0.163992
-0.225919 0.024670 -0.303712
0.822772 -0.029652 0.516936
0.397773 -0.194155 -0.228607
-0.742976 0.126036 0.360785
-0.640319 -0.137160 -0.039253
0.414772 -0.110477 -0.647469
0.548960 0.177858 0.616678
0.263255 0.138170 -0.381256
0.389772 -0.022590 -0.641678
0.317762 0.189857 -0.508054
-0.297847 -0.113808 -0.143911
0.583720 -0.183235 0.006223
0.553917 0.188361 0.530687
-0.471159 0.093314 0.659371
-0.269934 -0.169864 -0.525354
-0.510985 0.198272 -0.068815
0.580166 -0.194703 0.143457
-0.668235 0.181113 0.350307
-0.351163 0.087286 0.154875
-0.365082 0.183991 -0.234998
-0.470327 0.192273 -0.372065
0.445445 -0.166861 -0.654574
0.430824 0.091342 0.489795
-0.293708 -0.117101 -0.172097
-0.637222 -0.199982 0.604416
-0.314093 -0.098504 -0.031247
-0.649179 -0.180276 0.260228
-0.471445 0.190124 0.151781
0.453913 0.198225 -0.081150
0.408373 0.102114 -0.645986
0.602447 -0.194991 0.245154
0.260456 -0.175360 -0.607938
0.550169 0.188222 -0.083061
-0.412995 0.199409 -0.307533
-0.320460 -0.129519 -0.099757
-0.329921 0.083477 0.071140
-0.313471 0.165593 -0.308245
-0.403150 0.019797 -0.644777
0.500379 -0.166622 0.491828
0.562967 0.185004 -0.064882
0.403268 -0.083007 0.388728
-0.377346 -0.094132 0.252463
-0.429037 -0.192577 -0.545554
0.631410 0.115883 -0.155034
0.429212 0.120342 0.402277
0.396388 -0.007714 0.438306
0.552923 -0.178650 0.626893
0.355699 -0.198410 -0.511397
-0.355632 0.070681 -0.633769
-0.678532 0.139877 0.137271
-0.278042 -0.181383 -0.584792
-0.828775 0.008195 0.533798
0.430016 0.195471 -0.489659
-0.804343 0.009390 0.428559
-0.568120 0.199846 0.328811
0.592769 -0.198710 0.500964
-0.686821 0.138530 0.167268
-0.240517 -0.157721 -0.575223
-0.600819 -0.047906 0.643857
-0.309718 0.180166 -0.436657
-0.253452 -0.159818 -0.531516
0.650640 0.177970 0.245949
0.724145 0.176452 0.550407
-0.680438 -0.055262 -0.072808
-0.372855 -0.179730 -0.160112
-0.482257 0.191836 0.174042
-0.235094 0.147330 -0.544242
-0.530040 0.151551 0.660253
-0.642851 0.003287 -0.269452
0.504972 0.063230 -0.668363
-0.570051 -0.091960 0.650984
0.758348 0.012649 0.230798
0.383098 0.117131 0.213702
-0.443867 -0.079938 0.570059
0.726208 0.178006 0.572483
-0.465455 -0.004914 0.675213
-0.648543 0.143667 0.632802
-0.432208 0.050953 -0.651508
-0.667421 0.070894 -0.105959
0.590936 -0.167028 -0.094908
-0.363334 -0.198530 -0.482718
-0.375301 0.172586 -0.090473
-0.558109 0.188383 0.548497
-0.718612 -0.044060 0.616571
0.661619 0.133115 0.036266
0.591560 0.074001 -0.428094
-0.720783 -0.131931 0.287028
-0.402376 0.191488 -0.165639
-0.400562 0.194567 -0.634428
-0.448222 0.037090 0.647356
0.727320 0.072984 0.156194
0.440100 0.197744 -0.125857
-0.442262 0.025394 0.629830
-0.496200 0.197042 -0.168262
0.625939 0.082514 -0.263638
0.590772 -0.152126 -0.183486
-0.782502 -0.012673 0.335078
0.663823 -0.198819 0.611057
-0.646184 -0.034178 -0.242148
0.651997 0.158310 0.114575
0.523659 0.196129 -0.071398
-0.560453 0.197485 0.401082
-0.531096 -0.158928 -0.403787
-0.571279 0.163211 -0.204525
-0.516827 0.191930 -0.176573
0.414456 0.161786 -0.647396
0.327864 0.190473 -0.472826
0.585114 -0.199551 0.426800
0.576724 0.195398 0.520230
0.615546 0.026398 0.640446
-0.602482 0.198934 0.351021
0.601793 0.146396 0.643632
0.574609 -0.097713 0.649928
0.668948 0.030920 -0.146255
-0.557443 -0.184060 -0.098738
-0.677794 0.035117 0.626026
0.554557 0.125672 -0.453917
0.549383 -0.194200 0.425073
0.769945 -0.013081 0.280984
0.404470 0.197427 -0.554090
0.461536 -0.160249 0.364229
-0.385853 0.027173 0.385267
0.714094 0.166729 0.434758
0.422672 -0.176334 0.084367
-0.335037 0.193751 -0.492324
0.777684 0.064356 0.602887
0.715731 0.179170 0.537490
0.299471 0.112162 -0.620760
0.497503 -0.162886 0.503478
-0.410605 -0.193381 -0.159806
0.523293 0.166486 0.591654
0.429558 -0.199955 -0.322959
0.313422 0.113019 -0.074267
0.505880 0.156185 0.578962
0.784359 -0.109601 0.601341
-0.412357 0.199972 -0.393259
0.709555 -0.113985 0.618669
0.683538 -0.036370 -0.079152
-0.175362 -0.025017 -0.592011
0.408786 0.045276 0.469479
-0.626544 -0.187278 0.235247
0.731849 0.159199 0.464431
0.669573 0.194731 0.529945
0.736271 -0.006848 0.612481
0.761004 0.134971 0.472732
-0.447837 -0.199879 -0.255960
0.632200 0.136004 -0.079093
-0.597863 -0.198379 0.309877
-0.256779 -0.009758 -0.164778
0.757391 -0.093882 0.607588
0.613813 -0.179573 0.101135
-0.360757 -0.198688 -0.499748
-0.298594 -0.171214 -0.411391
-0.627344 -0.101051 -0.215069
0.711483 -0.185951 0.586664
0.331341 -0.020603 0.153443
0.552436 -0.176821 0.640497
0.718455 -0.173587 0.502880
0.442995 0.125165 0.445155
-0.800785 -0.105446 0.545408
0.313050 0.054759 -0.623905
0.299619 0.120311 -0.157071
0.352311 -0.066657 0.198018
-0.583476 0.166819 -0.128513
-0.434896 0.157162 0.267067
-0.230182 -0.114087 -0.436877
0.721330 -0.035083 0.615941
0.489081 -0.196879 -0.203092
0.686329 -0.007311 -0.081287
-0.231812 -0.000118 -0.271502
-0.424615 0.192909 -0.091539
-0.732405 0.157137 0.455019
-0.478577 -0.178482 -0.492378
-0.446977 -0.013733 -0.654929
0.475905 0.104453 0.651764
-0.548606 0.043707 -0.655004
-0.514923 0.057960 -0.670668
-0.570142 0.198902 0.395535
0.471093 -0.117763 0.591537
-0.785276 -0.066790 0.601129
-0.251836 -0.014936 -0.187534
0.273128 0.175545 -0.554739
0.250230 0.111800 -0.343394
0.415739 0.178442 0.036501
0.536744 -0.109913 -0.581799
-0.223403 -0.004135 -0.307992
0.642769 -0.173594 0.634140
0.376110 -0.069843 0.295628
-0.333978 0.100917 0.048450
-0.713453 0.157532 0.375438
0.406954 -0.090968 0.387597
-0.516599 0.149201 0.661850
0.636872 -0.162476 0.074070
-0.430008 -0.148097 0.293475
0.373035 -0.149208 0.042055
0.753138 -0.144462 0.479885
0.532499 0.049155 -0.674740
0.662024 0.084692 -0.103419
0.354363 0.035881 0.243167
-0.762150 0.133534 0.471910
0.837846 -0.037135 0.588951
-0.261391 0.011869 -0.145373
0.569143 0.109664 -0.442662
-0.383126 -0.185843 -0.177034
-0.222442 0.027358 -0.320282
0.630687 0.062624 -0.277519
0.441057 -0.013072 0.629906
-0.546438 -0.175343 0.626768
-0.738815 0.125832 0.342090
0.424010 -0.176886 0.085545
-0.379770 -0.199097 -0.603149
-0.358878 0.076124 -0.634521
-0.421488 -0.012454 -0.649024
0.444059 0.195527 -0.055113
-0.269283 0.134887 -0.613767
-0.236824 0.028099 -0.258658
-0.407099 -0.018341 0.481471
0.199282 0.035197 -0.425767
-0.399165 -0.198383 -0.547773
0.243397 0.162794 -0.592914
-0.565205 0.014896 -0.602305
0.660027 0.165966 0.196288
0.556671 0.135304 -0.408013
0.388665 0.191238 -0.221177
0.532685 -0.199968 0.156889
0.381260 0.199996 -0.506936
0.451829 -0.192518 -0.448089
-0.576447 0.199461 0.264978
-0.773443 0.105541 0.427634
0.738181 0.031552 0.612038
0.583157 0.055382 -0.492612
0.432624 -0.089352 0.502031
-0.678854 -0.077190 -0.045480
-0.491463 0.192804 0.198744
0.669324 0.181449 0.358208
0.589764 -0.118677 -0.325853
-0.677517 -0.156010 0.211790
0.505555 -0.188768 0.316800
0.453962 0.193123 0.031661
0.331525 0.048701 0.132277
-0.251611 -0.079699 -0.609673
0.698278 0.174156 0.420213
0.547026 0.199339 0.130996
0.402872 0.122734 -0.644712
-0.431444 -0.199731 -0.341901
0.441696 0.157913 0.292169
0.338555 -0.057832 0.151443
0.383699 0.025564 0.376919
-0.735700 0.143782 0.401469
-0.719662 0.101691 0.616328
-0.608655 0.184079 0.122544
0.718612 0.114412 0.216823
-0.777614 -0.087929 0.402440
0.584794 -0.151136 -0.214393
-0.457017 -0.191580 0.068887
-0.669807 -0.019452 0.627877
0.572688 -0.068440 -0.518955
0.423897 -0.177383 0.080857
-0.461853 0.172724 -0.611475
0.347171 -0.108738 0.084063
-0.360671 -0.133716 0.057579
-0.271004 0.079409 -0.175162
0.578755 0.156887 -0.209684
0.215474 0.080640 -0.601303
-0.313085 -0.165028 -0.306239
0.400090 -0.198034 -0.307339
0.617154 -0.138925 -0.131798
0.262823 0.000808 -0.137635
0.347493 0.114654 0.067799
-0.757809 0.105290 0.359455
0.399349 -0.159591 0.099656
-0.518861 0.198636 -0.021917
0.595213 0.078390 -0.404311
0.720894 -0.171972 0.501131
0.540586 -0.166900 -0.313124
0.277729 -0.053579 -0.105673
0.403284 0.187394 -0.644808
0.516566 0.182486 -0.291168
-0.491644 0.199375 0.033913
0.770759 0.083353 0.363239
0.257550 0.154195 -0.482221
-0.830293 0.013523 0.590701
-0.318370 -0.069770 0.046489
-0.596655 -0.139239 -0.218945
0.499476 -0.180062 0.383481
-0.523694 -0.065570 -0.672700
-0.568252 -0.019724 -0.587294
0.563179 -0.199105 0.189015
-0.238618 -0.160956 -0.602320
-0.544883 0.196599 0.031015
0.409180 0.199261 -0.468180
0.451927 0.092973 0.577145
-0.752419 0.039521 0.220905
-0.172008 -0.021504 -0.534811
-0.327194 -0.198094 -0.623938
0.284064 0.117936 -0.216416
-0.782070 0.002685 0.331513
-0.577314 0.164581 -0.169786
-0.684922 0.191911 0.548796
0.406793 0.131418 0.265700
-0.219769 -0.088730 -0.415487
0.228798 -0.131421 -0.502709
0.297173 -0.180094 -0.490148
0.406799 -0.145280 0.206753
0.582260 0.130972 -0.314673
-0.521126 0.145610 -0.516349
0.396781 0.200000 -0.443757
-0.447239 0.179027 -0.622859
-0.267235 0.001259 -0.118601
0.429603 -0.030220 -0.650904
0.825918 -0.003839 0.520883
0.300370 -0.159630 -0.327860
-0.561066 -0.194637 0.467487
-0.643301 -0.199985 0.629539
0.473248 0.199642 -0.168489
0.287454 -0.009817 -0.032367
0.422972 0.094788 0.447872
0.257352 0.161060 -0.522073
-0.304691 0.030943 0.032441
0.790799 -0.108182 0.599849
-0.404109 0.190271 -0.140903
0.662377 -0.148397 0.106818
-0.224659 -0.044982 -0.325089
-0.446388 -0.155063 0.328295
0.468090 0.194304 -0.347753
0.448234 -0.199711 -0.175851
0.211513 0.036471 -0.600385
0.429947 -0.188894 -0.011191
0.470405 0.199932 -0.150929
0.731929 0.031058 0.125724
0.758582 0.074747 0.294255
0.521264 0.168570 -0.385141
-0.498490 -0.138590 0.632459
0.636753 -0.199986 0.579972
0.445528 -0.136558 0.412355
-0.695612 -0.160300 0.314474
0.561695 -0.120258 -0.441808
-0.682603 -0.063211 -0.052536
0.310093 -0.135294 -0.167121
-0.571903 -0.170244 0.650555
0.465205 -0.034810 0.675271
-0.234307 -0.045970 -0.284463
0.336768 0.089220 0.088515
0.729459 0.046075 0.128149
0.344006 0.183062 -0.316481
-0.311701 0.158858 -0.274442
-0.343207 0.118649 0.036584
-0.719631 -0.161909 0.616335
-0.348198 -0.041428 -0.632047
-0.632065 0.164006 0.062899
-0.769312 0.114009 0.434449
-0.437724 -0.195624 -0.453232
0.640583 -0.145814 0.000304
0.376925 -0.098913 -0.638702
-0.296693 -0.104480 -0.620116
0.523097 0.187804 0.404461
0.458133 -0.180585 0.200167
0.551118 -0.160312 -0.309226
-0.624661 0.160584 0.638334
-0.366258 -0.199992 -0.585450
-0.268781 -0.048911 -0.138820
-0.442675 -0.199799 -0.287203
-0.359224 -0.004928 -0.634601
-0.470667 -0.159567 0.407668
-0.515081 0.044821 -0.670705
-0.362849 0.055146 0.259824
0.206854 -0.091773 -0.599306
0.753573 0.164849 0.592838
-0.543586 0.181650 0.558988
0.577582 0.141316 -0.292226
-0.324436 0.163152 -0.245304
0.266887 -0.022900 -0.125916
-0.265525 0.079042 -0.198116
0.367824 0.199897 -0.542140
0.635168 -0.136039 -0.066138
-0.257965 -0.020735 -0.163379
0.682020 -0.084606 -0.017275
0.349564 0.093843 -0.632364
-0.465519 -0.137796 0.493485
-0.429557 0.199115 -0.387389
-0.606138 0.125326 -0.232481
0.486554 -0.182095 0.308473
0.540311 -0.193712 0.394511
0.351800 -0.131013 0.029855
0.431894 0.020492 -0.651435
-0.312330 0.146522 -0.206938
0.553684 -0.130375 -0.440318
-0.696586 0.116325 0.127723
0.688284 -0.125496 0.122747
-0.496618 0.135664 -0.665788
-0.760528 0.153821 0.558264
-0.810927 -0.080157 0.530299
0.536817 -0.061817 -0.675740
0.651500 -0.168054 0.173521
0.343654 -0.011501 0.209849
-0.762886 0.064666 0.296218
0.502346 -0.199974 0.024370
-0.395770 0.178361 -0.643067
-0.473320 -0.192084 -0.362054
-0.746427 -0.040614 0.610128
-0.302163 0.182727 -0.493762
-0.534377 0.166203 -0.344577
0.439410 0.065803 0.575345
0.547728 -0.196498 0.040922
-0.485084 -0.195400 -0.253366
-0.420784 0.149656 0.245954
0.683623 -0.003892 -0.093393
0.803103 0.014019 0.424410
0.243754 -0.150358 -0.521808
-0.784640 0.004046 0.342708
-0.529998 0.181086 -0.246712
0.387892 -0.199133 -0.401558
0.720134 -0.181535 0.578373
0.512857 0.187733 -0.250100
-0.353385 -0.072641 -0.633249
0.360834 -0.158386 -0.059618
0.779951 0.059272 0.362099
0.521243 -0.032071 -0.672132
0.310087 -0.105700 -0.067475
-0.291326 -0.141934 -0.276439
-0.361429 -0.199673 -0.547567
0.588455 -0.154931 -0.178599
0.314472 -0.117636 -0.084179
-0.739394 -0.124888 0.341225
-0.282519 0.010796 -0.053897
0.563626 -0.138854 -0.363181
-0.734797 0.130185 0.612822
0.690541 0.190987 0.559511
-0.535257 0.035278 -0.675378
0.394103 0.035334 0.415162
0.224042 -0.073581 -0.367205
0.235256 -0.125330 -0.452230
-0.621597 0.003094 -0.361218
0.330740 -0.055190 0.121154
0.485406 0.185385 0.269558
-0.776281 -0.104949 0.438261
0.549660 -0.196518 0.379037
-0.420447 0.107765 0.403170
-0.603929 0.186414 0.127583
-0.423041 0.040135 0.535998
-0.338294 0.187853 -0.393921
0.283237 0.024223 -0.616999
0.169321 -0.055081 -0.575546
0.287280 -0.111750 -0.617936
0.455668 0.161460 0.331632
-0.592456 -0.194024 0.184108
-0.180383 0.044666 -0.515903
0.406761 0.175073 0.025961
0.471728 -0.113768 0.606848
0.559612 -0.199624 0.203001
-0.662105 -0.112739 -0.032229
0.627969 -0.013106 -0.331911
-0.398654 -0.186190 -0.113891
0.314419 0.179820 -0.624223
0.666891 -0.196767 0.561760
-0.314263 -0.173967 -0.364596
-0.739362 0.097611 0.611765
0.216140 0.029303 -0.348724
0.499368 0.195775 0.178476
-0.491846 0.198833 -0.130784
0.686110 -0.137316 0.159076
0.807242 -0.025289 0.447211
-0.279471 -0.099812 -0.184015
-0.303603 0.147470 -0.621717
0.336297 -0.132315 -0.042114
-0.612631 -0.161785 -0.034817
0.286502 -0.047184 -0.060425
-0.639041 -0.125152 0.635003
-0.381627 0.149304 0.078670
0.430168 -0.186051 -0.626641
0.291602 0.125013 -0.207861
-0.647489 0.078711 -0.178031
-0.785782 0.055855 0.382717
-0.384686 -0.052966 0.356802
0.616833 0.097925 -0.268388
-0.520769 0.184727 0.429331
0.571586 0.190766 0.575225
0.505360 0.191418 -0.233694
0.582781 -0.197288 0.211906
0.435667 0.199203 -0.198699
-0.571978 -0.076836 0.650538
0.627638 0.022012 -0.329860
-0.676440 0.195275 0.570182
-0.630504 0.027594 -0.314397
0.237120 0.128911 -0.457251
-0.621533 0.008044 -0.360882
-0.693274 -0.061960 -0.008296
0.771378 -0.137012 0.604348
-0.296863 -0.135143 -0.223619
0.302313 -0.068818 -0.621418
0.644893 0.040434 -0.242457
0.628496 -0.199954 0.535726
0.522590 -0.167150 -0.389128
-0.181624 0.077491 -0.557389
-0.660619 -0.197787 0.561912
-0.692631 0.143679 0.215070
0.225006 -0.100508 -0.420923
-0.425160 0.197444 -0.464312
0.277713 0.175919 -0.537995
-0.450712 -0.198507 -0.104678
-0.375765 -0.087826 0.259913
0.739729 0.040583 0.167083
-0.429602 0.065619 0.533289
0.644718 -0.172475 0.176059
0.387699 -0.197136 -0.335343
0.384391 0.197468 -0.358507
-0.495148 -0.194926 -0.219301
0.583153 0.120075 -0.349784
0.476341 -0.197286 -0.247635
-0.270303 -0.129733 -0.317089
0.176527 -0.058184 -0.548497
0.565149 -0.034110 -0.592022
-0.299309 -0.191071 -0.604523
0.538758 0.179178 0.561061
0.596315 -0.141515 -0.210475
-0.497851 -0.195125 -0.203766
-0.518715 0.130832 -0.589532
-0.584174 -0.187360 0.053306
0.562236 -0.036224 -0.602925
0.321627 -0.009825 0.115153
0.517118 0.168516 0.551203
0.407283 0.034575 0.472652
0.268726 -0.133032 -0.613638
-0.211656 0.102406 -0.483505
-0.470948 -0.177315 -0.535384
-0.518536 -0.159148 0.616770
0.680473 -0.117272 0.061187
-0.486984 0.173240 -0.499047
0.416595 -0.005064 0.525914
-0.286029 0.066497 -0.087874
0.262959 0.153464 -0.454972
0.400256 0.098349 0.341105
-0.181380 0.031382 -0.500192
0.398026 0.198840 -0.535530
0.759734 0.136222 0.472365
-0.638366 0.095781 -0.180693
-0.806388 -0.036519 0.451309
-0.683027 0.096654 0.014229
0.584452 -0.163972 -0.142864
0.223003 -0.061702 -0.352763
-0.458488 0.126626 0.506794
-0.673493 -0.174368 0.314879
-0.598863 0.079364 -0.386701
-0.603543 -0.198934 0.538367
-0.634202 0.062908 -0.261928
-0.480209 0.109817 0.655263
0.642108 -0.052907 -0.241209
-0.775326 -0.080357 0.376997
0.408928 -0.197204 -0.540826
-0.633367 -0.073535 -0.248436
-0.260126 -0.008839 -0.150138
0.628361 -0.157774 0.009473
0.534661 -0.182395 0.513210
0.439339 0.076889 0.556273
0.716465 -0.107368 0.617069
-0.166417 0.015718 -0.556553
-0.728927 -0.000884 0.102025
0.648128 -0.053690 -0.214261
0.423063 0.187820 -0.027583
0.664643 0.156497 0.158915
0.700005 0.187519 0.555238
0.502035 -0.167156 0.495393
0.243621 -0.142610 -0.485411
-0.749008 0.142936 0.455070
-0.611236 0.177664 0.073213
-0.237073 -0.048058 -0.274759
-0.310380 -0.097467 -0.044694
-0.364702 -0.164235 -0.078315
0.503199 0.088018 -0.667952
-0.696330 0.162086 0.621733
-0.367247 -0.013122 0.311253
-0.586019 0.110258 -0.368076
0.495128 0.151400 0.558061
0.664305 -0.102296 -0.052257
0.262129 0.115231 -0.302506
-0.585460 -0.029725 -0.507485
0.639278 -0.079909 -0.211185
-0.604837 0.041129 0.642926
-0.394182 -0.176573 -0.040606
0.190529 0.060378 -0.491072
0.335577 -0.039506 0.158982
-0.473489 0.199804 -0.153658
0.282010 -0.018370 -0.058546
-0.527211 0.198471 0.226865
0.569632 -0.072289 -0.525738
-0.588866 0.199962 0.400865
0.460807 0.167081 -0.656314
-0.454223 0.185256 0.136357
0.482091 0.183303 -0.431812
0.400862 -0.197195 -0.280055
0.384702 -0.199983 -0.509179
0.752745 0.022111 0.210267
0.701653 0.152518 0.620500
0.426752 -0.139340 0.319555
0.552060 0.099485 -0.544090
-0.229385 -0.041634 -0.301398
0.167191 -0.021921 -0.590118
0.344736 0.040652 0.197487
-0.635040 0.094635 -0.197799
0.629745 -0.091780 0.637157
0.615455 -0.012124 -0.386210
-0.478218 -0.184332 0.249837
0.453474 -0.180633 -0.581311
0.699596 0.053220 0.007346
-0.563746 -0.164091 0.652445
-0.465554 -0.098783 0.621905
0.626329 0.088801 -0.248747
0.377719 0.183431 -0.174683
-0.246048 0.071537 -0.268680
-0.426687 -0.087608 0.480212
-0.709417 -0.024391 0.618701
0.487150 0.184334 -0.399318
-0.594584 0.166377 -0.083509
0.755941 -0.020849 0.223462
0.686644 0.024078 -0.074073
-0.629091 -0.155276 -0.001296
-0.383242 0.196139 -0.330744
0.607262 -0.199983 0.474530
-0.749731 -0.168092 0.609363
-0.789683 -0.097300 0.476246
-0.717449 -0.000303 0.052465
-0.632667 0.088637 -0.221745
-0.268031 0.056815 -0.151660
-0.680841 -0.037290 -0.090030
0.547035 0.104700 -0.552066
0.519858 0.135205 0.662611
0.278069 -0.001638 -0.071842
0.315124 -0.155138 -0.624386
-0.239096 0.026333 -0.606774
-0.469077 -0.196852 0.023125
0.276430 -0.074785 -0.143178
0.541553 -0.127466 -0.503556
0.271814 0.046781 -0.123401
0.289411 -0.177463 -0.500395
-0.495410 -0.161067 -0.545207
-0.532816 -0.157690 -0.403466
-0.439906 -0.068920 0.572548
-0.598701 0.199608 0.370599
-0.180535 0.059997 -0.533683
-0.729485 -0.139210 0.354353
0.674871 0.046074 -0.107506
-0.674453 0.035623 -0.118977
0.590192 -0.193888 0.171923
-0.398061 -0.198146 -0.319685
0.709806 -0.156805 0.355599
0.719774 -0.026701 0.070434
-0.727419 -0.132210 0.316764
-0.430042 -0.013563 0.582207
-0.663114 -0.072718 -0.121444
-0.463157 0.099436 0.609908
-0.387724 -0.044933 0.378907
-0.421897 -0.111954 0.397227
0.296419 0.088433 -0.083941
-0.682906 0.121520 0.624842
-0.187321 0.028896 -0.594781
-0.452024 0.020230 0.674596
-0.369831 0.139546 0.072942
0.228928 -0.028421 -0.292947
0.621716 -0.193969 0.309445
-0.583087 0.032789 0.647965
-0.468668 0.139194 0.501136
-0.357942 -0.007284 0.272406
0.554374 0.161117 -0.290360
-0.553025 -0.188949 0.519432
-0.398212 0.196669 -0.600503
0.450495 0.045587 0.649214
0.751158 -0.088880 0.609032
0.602141 0.016926 -0.442138
-0.241063 -0.005431 -0.607230
-0.480687 0.157252 -0.630986
-0.676489 0.082945 0.626329
0.420229 0.195288 -0.535609
-0.284796 0.043914 -0.617361
0.683330 0.068630 -0.041014
0.425657 -0.053882 -0.649990
0.339241 -0.197532 -0.555181
-0.728911 -0.127034 0.303682
0.671814 -0.023049 0.627412
0.530981 0.029156 0.660035
-0.709780 0.186375 0.584095
0.569452 0.121400 -0.404486
-0.705261 -0.015231 0.619664
0.303234 -0.008005 0.036113
0.270294 0.082418 -0.184129
-0.345558 -0.095099 -0.631436
-0.743494 0.156455 0.499075
0.288986 -0.124085 -0.215882
0.608690 0.165683 -0.027194
0.514480 0.133264 0.663857
0.368771 -0.172451 -0.636813
-0.806731 -0.074534 0.501734
0.223001 0.121739 -0.492633
-0.728911 -0.105679 0.614185
-0.597201 0.198312 0.304712
-0.448984 -0.001715 0.665988
0.577005 -0.005905 -0.553441
-0.457543 -0.193642 -0.404978
-0.402757 -0.188138 -0.119113
0.244168 0.138362 -0.464471
-0.211990 -0.104171 -0.486780
-0.710396 -0.149958 0.321858
-0.212490 0.085681 -0.600611
0.280877 0.112702 -0.213801
0.306961 0.193371 -0.607051
0.568999 0.055985 -0.552958
-0.605847 0.038242 -0.412964
0.544803 0.199789 0.234087
0.651494 -0.190003 0.632119
-0.661640 0.115147 -0.026838
-0.529967 0.117526 -0.587726
-0.524072 0.199289 0.029266
-0.732643 -0.056634 0.154333
-0.419984 0.194115 -0.132010
0.407678 0.156693 0.152201
0.772912 -0.115372 0.454221
-0.500792 0.167580 0.487155
-0.216113 -0.034477 -0.352541
0.328052 -0.197745 -0.609589
-0.592748 0.046613 -0.461457
-0.703418 0.065903 0.041390
-0.443371 -0.049935 -0.654094
0.758167 0.141315 0.607408
0.486964 -0.158075 -0.599214
0.521495 0.125968 0.662232
0.816545 0.069645 0.593886
0.433200 -0.131668 0.378730
-0.713996 0.163316 0.412237
-0.422278 0.049449 0.523215
0.583891 0.199992 0.354075
-0.608537 -0.063464 -0.371902
0.465554 -0.095790 0.629289
-0.554386 0.024316 0.654613
0.275079 0.034097 -0.097697
-0.467314 0.126539 -0.659640
-0.309559 -0.099669 -0.053762
0.489033 -0.158138 0.495233
0.559552 -0.190527 0.526614
-0.413549 -0.133064 0.288433
0.617826 0.101306 -0.255498
0.204027 -0.103983 -0.520652
0.535750 0.077353 -0.662951
-0.464775 0.121291 0.552608
0.345430 -0.111612 0.068142
-0.534178 0.199943 0.168741
0.396079 0.185695 -0.119470
0.654638 0.173313 0.225273
0.669866 -0.189221 0.446282
-0.364678 -0.179129 -0.190003
0.366169 -0.197831 -0.447572
0.638064 0.122559 -0.104336
-0.387265 0.147816 0.110324
0.326646 0.190975 -0.485131
0.353983 -0.004846 0.255643
-0.485788 0.187126 -0.374186
-0.544334 -0.130246 -0.481172
-0.663394 -0.196843 0.548521
-0.466408 -0.029160 0.674993
0.656809 0.019380 -0.205147
0.553977 0.033285 -0.640877
-0.264493 -0.093927 -0.234235
-0.510224 -0.172561 -0.403899
-0.475528 0.179892 0.281652
0.512573 -0.199996 0.049009
0.311862 0.118952 -0.099724
-0.728926 -0.004088 0.102196
0.560641 0.080389 -0.549727
-0.690972 -0.099476 0.622974
-0.655491 -0.198372 0.558413
0.692063 -0.090063 0.037818
0.351651 -0.198547 -0.533771
0.653745 -0.165681 0.167293
0.334129 -0.131727 -0.049184
-0.213091 -0.051219 -0.381874
-0.161035 0.014230 -0.579291
0.311705 -0.031329 0.062451
0.433045 -0.175190 0.138489
-0.575167 -0.199407 0.392694
-0.437480 0.079113 0.544073
-0.427100 0.199999 -0.312248
-0.634965 -0.109972 -0.157612
-0.387810 -0.031963 0.390542
-0.692578 0.160264 0.622602
0.745554 -0.148179 0.464818
0.312084 -0.139946 -0.178079
-0.533844 0.183742 0.496117
0.708083 0.106700 0.619010
-0.423434 0.191046 -0.592738
-0.500058 -0.191812 0.251240
-0.578550 0.198107 0.217444
0.377754 -0.036116 0.343954
0.642710 -0.151392 0.036939
0.571673 -0.156301 -0.243526
-0.183098 -0.048383 -0.508124
0.673712 -0.090061 -0.041407
-0.757893 0.128151 0.432894
0.445021 0.049703 0.621109
0.639686 -0.118205 -0.111881
0.612875 0.118034 -0.228175
-0.267421 -0.059449 -0.157839
0.786712 -0.019833 0.355838
0.341623 0.083536 0.121540
0.416985 0.109657 0.382793
-0.448807 0.194485 -0.427693
-0.213553 -0.080954 -0.426171
0.355019 0.156996 -0.076825
0.449608 -0.162472 0.299286
0.338970 0.157889 -0.151159
-0.669277 -0.016987 -0.152288
0.388503 -0.001476 0.404901
0.549096 -0.047065 -0.649418
0.487193 0.189874 -0.333708
0.186061 0.032273 -0.480623
-0.559131 0.071518 -0.572386
0.755200 0.055548 0.250302
0.656851 0.132622 0.630878
-0.579264 0.056298 -0.508236
0.604531 -0.094702 -0.329346
-0.579112 0.050319 0.648886
0.561178 -0.169040 -0.209560
0.331722 -0.182288 -0.628231
-0.580552 0.094699 -0.432869
0.326688 -0.193664 -0.526876
-0.459981 -0.139867 0.460729
0.470083 -0.168659 0.347166
-0.321425 -0.015066 0.112837
-0.469691 -0.191331 -0.388936
-0.563264 -0.182383 0.636814
-0.540341 0.199324 0.246982
-0.776876 0.002619 0.603075
-0.309026 -0.193899 -0.607191
0.512685 0.197546 0.193155
-0.287013 0.022855 -0.039010
0.287381 -0.162245 -0.617959
-0.629955 0.145274 0.637108
0.753999 -0.090474 0.306115
0.563049 0.131020 -0.397424
0.682191 0.049982 -0.071620
0.361009 -0.167413 -0.115141
0.719287 -0.114606 0.220338
-0.549277 0.039440 -0.656124
0.472860 -0.192231 0.127449
-0.485798 -0.195094 -0.256408
0.593502 0.156397 -0.148754
0.383683 -0.199970 -0.517425
-0.280083 -0.093880 -0.166825
0.707018 -0.171053 0.434437
0.536439 0.174634 0.589279
0.567593 -0.191801 0.542949
-0.321803 0.159552 -0.234881
-0.387122 -0.170588 -0.024655
0.373174 0.198326 -0.433073
0.716268 -0.047801 0.073051
-0.490479 -0.186097 -0.365761
0.800793 -0.090206 0.507523
-0.433294 0.184300 -0.632165
0.388081 -0.135207 -0.641286
0.518091 -0.135200 -0.574985
0.208791 0.124963 -0.565178
0.412197 0.198783 -0.476680
0.482912 0.175505 0.351215
-0.546037 0.192366 0.441257
-0.598519 -0.099972 -0.342286
0.612679 0.019702 0.641110
0.401556 -0.067865 0.408691
-0.653868 -0.032467 -0.210258
-0.607026 0.194568 0.256875
0.477892 0.186725 0.222063
-0.555233 0.130835 -0.431872
0.568526 -0.152127 -0.279513
0.252525 -0.031139 -0.192892
0.386551 0.097612 0.283777
-0.646774 -0.116140 -0.087899
0.510864 0.178014 0.450870
0.341109 -0.133018 -0.024103
-0.429719 0.083381 0.502159
0.607724 0.177394 0.055746
-0.600277 -0.172557 -0.015172
0.710244 -0.060474 0.062845
-0.514884 0.175563 0.488767
-0.310219 0.036035 -0.623250
-0.333199 -0.188022 -0.417972
0.418109 0.195595 -0.538501
-0.384873 -0.199339 -0.568968
0.616854 -0.041458 -0.362549
0.584186 0.141003 -0.265097
-0.399092 0.079550 0.377517
0.738658 0.056656 0.180327
-0.233967 0.111166 -0.411715
0.745829 -0.032466 0.610267
0.633504 -0.088528 -0.218370
0.591733 -0.197086 0.245269
-0.408867 -0.195377 -0.582863
0.380798 -0.032822 0.359647
-0.558570 -0.101537 -0.510702
0.435918 -0.067477 0.557652
0.444229 -0.124424 0.453105
-0.399894 0.199412 -0.364236
0.392523 0.199801 -0.503460
0.709871 -0.175131 0.478000
-0.699257 0.167515 0.376007
0.431242 -0.139288 0.339162
0.448826 0.171442 0.235476
-0.701053 0.096964 0.092808
-0.613665 -0.155782 -0.065113
-0.599333 0.041536 -0.438112
-0.507558 -0.179906 -0.354540
-0.660900 0.165378 0.196202
0.242083 -0.149729 -0.525857
0.636826 0.192458 0.349594
0.572490 0.115969 -0.409119
0.618046 -0.190019 0.233129
0.512999 0.178752 0.453647
0.409553 -0.123678 -0.646260
0.593659 0.035275 -0.468036
0.557109 0.080741 0.653982
-0.297099 -0.189591 -0.593723
0.381124 0.197652 -0.377777
0.600538 0.197486 0.574106
-0.570863 0.189426 0.590273
-0.649805 0.087911 -0.149344
-0.522389 -0.195672 -0.086716
0.453954 -0.067533 0.635424
-0.685794 0.078990 -0.012140
-0.595427 -0.183034 0.645106
-0.527778 0.174429 0.553517
0.398559 -0.033003 0.436187
-0.286974 -0.128038 -0.617865
-0.308044 -0.129425 -0.153003
-0.792185 0.006479 0.375563
-0.542898 -0.138104 -0.455848
-0.733981 -0.139176 0.373617
-0.788661 -0.119874 0.536717
-0.557360 0.046121 0.653924
0.596274 0.193826 0.634112
0.478692 -0.193223 0.136763
-0.338771 0.017950 0.186659
-0.574381 0.040230 -0.547037
-0.222512 0.053783 -0.344299
0.589213 -0.199556 0.444169
-0.399213 -0.195800 -0.615769
0.610006 -0.197513 0.335553
-0.389484 -0.171422 -0.020555
-0.679009 -0.151506 0.194227
0.221423 0.087569 -0.405817
0.622965 0.087832 -0.265384
-0.673217 0.067469 -0.086532
-0.794811 -0.065934 0.435978
0.617232 -0.009255 -0.379220
0.604822 0.057457 0.642930
0.632564 -0.151650 -0.005534
-0.585137 -0.158818 -0.171136
-0.683646 -0.138276 0.152479
0.716918 0.126446 0.249773
0.828551 0.011872 0.591104
0.549462 0.199297 0.139261
0.529426 -0.183671 -0.223709
0.488605 -0.150143 -0.634678
-0.632783 0.173224 0.130235
-0.761630 0.026181 0.250817
0.338692 -0.188368 -0.398522
0.341143 0.072789 0.139695
0.551584 -0.180428 0.605055
-0.352453 0.073587 0.187130
0.261256 -0.115886 -0.308332
0.313618 -0.155883 -0.249359
0.549774 0.188825 -0.077231
0.454566 -0.186095 0.128550
-0.206895 -0.049656 -0.599315
-0.746125 0.061414 0.610198
-0.411796 -0.155406 0.177092
-0.546558 0.198654 0.098341
0.778620 0.143427 0.585131
0.718632 -0.075874 0.123824
-0.352950 0.079514 0.178392
0.622612 -0.179761 0.140824
0.606997 -0.183573 0.110155
0.576969 0.128150 -0.348146
-0.662619 0.178652 0.303608
-0.373603 0.181908 -0.177308
-0.641924 0.150295 0.027968
-0.494277 -0.184124 -0.370756
0.791938 0.037146 0.389451
0.777883 -0.056567 0.349541
-0.506663 -0.199972 0.043644
0.499831 -0.153909 0.565224
0.658827 -0.166740 0.196243
0.744650 -0.084940 0.610539
0.237036 0.134477 -0.479199
-0.561977 -0.198704 0.166820
0.549996 -0.072999 -0.609279
0.382854 0.194931 -0.307450
0.614906 -0.087331 -0.301254
0.743183 0.149644 0.610879
-0.344072 -0.075032 -0.631091
-0.515200 -0.199956 0.084177
0.571851 -0.103175 -0.449042
0.425663 -0.069676 0.509822
0.371250 0.078274 0.259752
0.309520 0.089213 -0.029100
-0.779419 -0.081627 0.397161
0.586570 -0.143391 -0.244105
0.816208 -0.077382 0.547828
-0.716842 0.131891 0.269863
0.543942 -0.175459 0.615052
0.670545 -0.069793 -0.094305
0.564038 -0.177805 -0.129328
-0.466517 0.198852 -0.049736
0.636949 0.199942 0.569769
-0.481763 -0.199913 -0.104928
0.684707 -0.009493 -0.087883
-0.516703 -0.103382 0.663342
0.456591 -0.199402 -0.255866
-0.681081 0.191486 0.525890
-0.385576 -0.053175 -0.640706
0.655963 0.191348 0.415427
0.802281 0.043704 0.440098
-0.624758 0.042738 -0.327209
-0.620952 0.071784 -0.305056
-0.554532 0.094295 -0.546155
0.432828 0.100163 0.477124
-0.445400 0.194660 -0.032283
0.735750 -0.154354 0.454153
0.680622 -0.193611 0.557520
0.335532 0.117052 0.008612
-0.502957 -0.164242 0.518483
-0.672671 0.105284 -0.008100
0.701699 0.086422 0.071486
-0.278560 -0.043539 -0.090950
0.393451 0.199945 -0.439175
0.397154 -0.193912 -0.226975
-0.624459 0.055499 0.638381
0.700722 0.130231 0.193889
0.477267 -0.096559 0.672477
-0.508928 -0.182891 -0.320113
-0.380872 -0.180098 -0.128854
0.317935 0.154537 -0.223386
0.716895 -0.130000 0.262835
0.221828 -0.056859 -0.351172
0.568058 -0.199508 0.355925
0.778225 -0.118119 0.485906
-0.362421 0.146109 0.011269
-0.277956 -0.084207 -0.154685
-0.175983 0.029862 -0.522448
-0.327975 -0.182149 -0.376630
-0.565494 -0.199368 0.353138
-0.731415 0.018441 0.116530
-0.814181 0.088777 0.562150
-0.807765 0.111017 0.591428
-0.411273 0.068697 0.449302
-0.364815 -0.163798 -0.075044
-0.788432 -0.066847 0.409865
0.613005 -0.060620 -0.356727
0.331346 -0.150782 -0.145827
-0.484501 0.090948 -0.663621
-0.317484 -0.189265 -0.501463
0.720412 0.023239 0.071261
-0.462578 0.192269 -0.405568
0.647415 0.193517 0.412562
0.195939 -0.090185 -0.521582
-0.282068 0.174997 -0.511721
-0.214578 -0.032374 -0.357590
0.437758 0.047881 0.591786
0.349402 0.067470 0.184173
-0.352645 0.115024 0.088892
-0.590391 -0.101524 -0.373364
-0.209503 0.036790 -0.382935
0.422688 0.162482 0.183007
