ply
format ascii 1.0
element vertex 1663
property float x
property float y
property float z
end_header
-0.620139 -0.474651 -0.235674
-0.312636 -0.024681 -0.516294
-0.504649 -0.552363 -0.243984
0.275428 -0.171716 0.176964
0.469646 -0.265007 -0.521437
-0.813619 -0.031254 0.020482
0.004274 0.140004 -0.298534
-0.249075 -0.491044 0.031539
-0.347777 0.081382 -0.478232
0.035645 -0.179143 0.229306
-0.677906 -0.121150 -0.273260
-0.385141 -0.559785 -0.060973
0.137620 -0.281173 0.073739
-0.735035 0.140138 -0.132598
-0.579340 0.100229 0.175852
0.365612 -0.094529 -0.504362
-0.029520 -0.219115 -0.084410
-0.732811 -0.210850 -0.134295
0.700397 0.022663 -0.176909
-0.225568 -0.489199 0.042502
0.001379 -0.054727 0.234298
0.009721 0.274790 -0.152590
0.217135 -0.184337 -0.395714
-0.189160 0.016053 0.310868
0.437209 0.056662 -0.465777
0.420834 -0.202589 0.093637
-0.618535 -0.374590 -0.067992
-0.400252 0.343600 -0.345052
-0.040873 0.204569 -0.285510
-0.552261 -0.268051 -0.446745
0.206573 -0.034069 -0.299231
0.267446 0.189661 -0.308738
-0.600690 -0.157857 0.048078
0.483663 -0.403552 -0.396502
0.741316 -0.213030 -0.188417
0.161438 -0.303196 0.038462
-0.186502 0.247783 0.202605
-0.196792 0.190847 0.362562
0.085733 0.181323 -0.255555
-0.474690 -0.433017 -0.035789
-0.025695 0.262533 0.154479
0.710943 -0.248248 -0.203213
-0.159305 -0.486549 -0.027026
0.282368 -0.111780 -0.305743
0.082673 -0.402908 0.217334
0.192164 -0.131883 -0.384801
-0.543450 -0.386935 -0.414354
-0.070059 0.185722 -0.307406
-0.636529 0.134127 0.004313
0.044481 -0.203159 0.215015
0.112236 -0.127982 0.058103
-0.827731 0.019092 -0.052051
0.142033 -0.205510 -0.317352
-0.474035 -0.080188 -0.613004
0.109664 0.183189 -0.231911
0.055500 0.098093 0.045023
-0.009816 0.088877 0.196197
0.002197 -0.412312 -0.057121
-0.645172 -0.221703 -0.292899
-0.355155 -0.482182 -0.276275
0.271344 0.162212 -0.334161
-0.359157 -0.046476 0.206972
0.013977 0.052475 0.166867
-0.246047 -0.241977 -0.596582
-0.306014 0.300270 -0.100314
0.372323 0.055265 -0.444939
0.102004 -0.043229 0.216641
0.219261 -0.170186 -0.361921
0.637801 -0.379367 -0.203508
0.205901 0.304258 -0.162488
-0.534761 -0.331163 -0.453407
0.433357 0.199891 -0.025065
0.288992 -0.109551 0.196858
-0.425241 0.183110 0.110666
-0.040582 0.067174 0.262345
-0.041649 -0.126377 -0.170115
0.101727 -0.398578 0.021252
-0.459255 -0.269741 -0.619096
-0.718056 -0.147113 -0.187904
-0.715934 0.140502 -0.309878
0.243944 0.298567 -0.161068
0.585187 -0.126912 0.003437
-0.241453 -0.325380 -0.613919
-0.713528 -0.016651 0.070539
-0.022719 0.422648 -0.129364
-0.405525 -0.215496 0.102594
0.103510 -0.080018 0.054656
0.599337 -0.237341 -0.364635
-0.578660 -0.225609 -0.415046
0.233959 -0.168955 -0.151555
-0.031334 0.155701 0.208811
0.079209 -0.356598 0.213366
-0.539791 -0.364974 -0.430173
0.354852 -0.460930 -0.255863
0.490014 -0.200903 0.056662
0.474063 0.023478 -0.502181
-0.430137 -0.308311 -0.657444
-0.087089 0.006039 -0.080346
-0.771344 -0.001119 -0.148668
-0.671400 0.063641 -0.361195
-0.780447 0.084885 -0.167025
0.142175 0.249686 -0.152580
0.024621 0.271368 -0.129539
-0.174335 -0.304577 -0.596006
0.106170 0.323474 -0.163209
0.754482 0.036041 -0.293163
-0.466300 -0.028672 -0.583923
0.725254 0.065256 -0.329316
-0.141280 -0.452911 -0.107132
-0.567943 -0.201455 0.040250
-0.352494 0.359426 -0.335407
-0.104755 -0.423669 -0.151635
-0.274558 -0.397586 -0.435231
0.422220 -0.464653 -0.146479
-0.142447 0.174561 -0.343909
-0.611147 -0.575072 -0.165152
-0.637608 -0.023591 0.099493
-0.069529 0.041654 0.326675
0.748306 -0.289638 -0.119705
0.446037 -0.137014 -0.562488
0.139921 0.190781 -0.215190
0.636154 -0.419840 -0.114326
-0.052005 -0.402464 -0.152257
-0.499154 -0.389784 -0.024605
0.426990 -0.498907 -0.333176
0.170520 -0.315682 0.055115
-0.132396 0.066107 -0.393883
0.244421 -0.122258 -0.327193
-0.362646 0.329881 -0.258204
-0.250991 0.348676 -0.180537
-0.489625 -0.361259 -0.525035
-0.122982 -0.501731 0.062709
-0.432940 0.308972 -0.279621
-0.369113 -0.150671 0.150583
0.089768 0.177202 0.031674
-0.226154 0.025007 0.299547
0.536565 -0.442694 -0.294068
-0.063592 -0.212400 0.118547
-0.804649 -0.014269 0.032812
-0.162842 -0.458987 0.084411
0.321699 0.236875 0.094761
0.635176 -0.102073 -0.038800
0.133048 0.367418 -0.064440
0.179580 0.162103 0.166398
0.401530 -0.294414 0.053246
0.567199 0.154494 -0.229957
-0.248961 0.284652 0.015723
0.303565 0.282340 0.047463
-0.008729 0.344881 0.089121
0.121367 -0.275093 0.101484
0.550284 -0.438405 -0.278520
-0.165802 0.125233 0.375475
-0.146609 0.048602 -0.408713
-0.371337 0.030956 -0.513527
0.581799 -0.458851 -0.131033
0.170267 0.303610 0.045657
-0.473435 -0.325295 -0.569916
0.253333 -0.379485 -0.043648
0.520210 0.092764 -0.445175
0.104638 -0.217541 -0.434573
0.055390 0.400590 -0.053037
-0.506695 -0.177776 -0.568570
0.424101 -0.426252 -0.080316
0.546760 -0.135178 -0.514705
-0.038904 0.344235 0.088502
0.179695 0.328325 -0.126164
-0.664534 0.172748 -0.146351
0.587823 -0.247390 -0.372762
-0.677452 -0.365357 -0.173891
-0.245502 -0.160583 -0.555622
-0.235539 0.228387 0.202222
-0.036260 0.158873 -0.203726
0.212378 -0.035187 -0.397539
-0.583672 -0.362167 -0.046885
0.144102 0.348734 -0.099038
0.399022 0.237767 -0.046649
0.262282 -0.403154 -0.236600
0.052694 -0.288771 0.028748
0.431856 -0.428256 -0.448722
-0.480505 -0.358370 -0.543188
-0.001546 -0.115545 0.129765
0.268749 -0.037422 -0.433026
0.124705 0.238823 -0.115619
0.098449 0.167541 -0.037515
0.246116 -0.394951 -0.221155
0.070013 0.232681 -0.011341
0.282296 -0.140222 -0.253279
0.398678 -0.478207 -0.207847
0.486310 -0.381823 -0.409450
-0.562106 -0.491525 -0.102401
0.397792 -0.476724 -0.202757
-0.299497 -0.393306 -0.478243
0.378467 -0.458173 -0.354073
0.016734 0.146861 0.123005
-0.463128 0.146387 0.176175
0.014078 0.440235 -0.144118
0.456197 0.216679 -0.167031
-0.382922 -0.204471 -0.636277
-0.753700 0.080768 -0.215099
0.662282 -0.259279 -0.261549
-0.177936 -0.410824 -0.278714
-0.208122 -0.011504 0.288980
0.299457 0.254249 -0.227169
-0.816599 0.025254 -0.075292
-0.609972 -0.279571 -0.334645
-0.354562 0.301898 -0.163751
0.486301 -0.291443 -0.478418
-0.073937 -0.412272 0.145758
-0.789040 0.127337 -0.158930
0.083330 0.258285 -0.046624
-0.676737 -0.049755 -0.304732
0.643601 -0.210866 -0.324113
-0.257489 0.374443 -0.266372
0.540134 -0.469608 -0.137388
-0.418708 -0.215901 -0.657280
-0.398321 0.035217 -0.522920
0.218186 0.118281 0.252792
0.105438 0.000648 0.017967
-0.347636 0.061239 0.265790
-0.596949 -0.406680 -0.074829
-0.235636 -0.395601 -0.394333
0.179330 0.111689 0.204518
-0.169587 0.285077 0.110093
0.151842 -0.183865 -0.336702
0.125028 -0.332983 -0.060363
0.517660 -0.180731 -0.519870
0.080415 0.253865 -0.206643
0.300737 -0.173936 -0.465819
-0.419175 -0.009206 -0.554055
-0.086731 -0.164234 -0.079265
-0.214603 -0.201687 -0.562992
-0.628137 -0.334095 -0.278473
-0.800563 0.103746 -0.101400
-0.075446 -0.163889 -0.095784
0.251818 -0.002837 -0.264278
0.276211 -0.052338 -0.278021
-0.590481 -0.260731 -0.378640
-0.661722 -0.033744 -0.339239
0.606333 0.132527 -0.255216
0.313639 0.241840 -0.245259
0.484787 -0.039326 0.074106
0.327749 0.172415 -0.336347
0.045353 -0.118556 0.196398
0.454021 -0.161543 0.087942
0.691801 -0.031658 -0.394721
-0.295328 -0.218140 0.148338
-0.034529 0.359037 0.048966
0.348601 0.003331 -0.462728
-0.530582 -0.292561 -0.477024
-0.423287 0.159502 0.184489
0.333659 0.023329 0.186285
-0.265990 -0.373799 -0.496915
-0.185040 0.343591 -0.085665
0.081521 -0.044654 -0.306498
0.096308 -0.124132 0.086159
0.127892 -0.304415 -0.232266
0.169321 -0.305019 0.024543
-0.349340 -0.500399 -0.214118
-0.490208 0.319236 -0.379709
0.590989 -0.125014 -0.461787
-0.533571 -0.545112 -0.117027
0.402538 -0.127382 0.126744
-0.546207 0.050038 -0.578668
-0.106699 0.136580 0.356879
0.290877 -0.231338 -0.447896
0.523493 -0.228691 0.029543
-0.640228 -0.405334 -0.092640
0.160728 -0.227963 0.008911
-0.584113 0.295489 -0.420991
0.166205 -0.339856 -0.078806
-0.075912 0.088419 0.319360
-0.423281 0.138938 0.246748
-0.100933 0.006627 -0.099787
-0.001458 -0.174575 -0.458389
0.297258 -0.371287 -0.367346
-0.649795 -0.032919 -0.361768
-0.419585 -0.128570 0.140085
-0.149539 0.322840 0.019937
0.207069 -0.052543 -0.308263
0.307893 -0.433816 -0.181365
0.508940 0.107250 -0.014389
-0.665781 0.009616 -0.349479
-0.110970 0.099539 -0.368004
0.313958 -0.304535 0.069356
-0.463018 -0.342028 -0.582430
-0.361880 0.210444 -0.419676
0.023189 -0.460353 0.113608
-0.514983 -0.383830 -0.468592
-0.010557 -0.228606 0.158620
0.117495 0.193355 0.057386
0.182588 0.251028 -0.232748
0.648037 -0.115283 -0.047087
-0.039517 -0.237697 0.094680
-0.627597 -0.336807 -0.278365
0.649490 0.094491 -0.216787
0.511734 0.130630 -0.391388
0.186510 -0.013698 -0.377506
-0.352132 0.117456 -0.462042
-0.073054 0.176322 0.277971
-0.516776 -0.470841 -0.429551
-0.138273 -0.496552 0.028602
-0.107670 -0.199422 0.043087
0.158108 0.234153 0.081971
0.708189 0.008837 -0.171903
-0.159491 -0.086771 0.272089
-0.125228 -0.074088 -0.460972
0.096718 0.335659 -0.126962
-0.247671 0.100721 -0.425799
0.305667 0.290882 -0.132332
0.200028 0.176622 -0.301884
-0.418546 -0.568854 -0.090297
0.100278 -0.367858 -0.073492
0.017079 -0.011981 0.187546
0.131982 -0.328984 -0.009418
0.413752 -0.311608 -0.533948
0.070565 0.328566 -0.051714
0.352035 -0.443568 -0.334542
-0.478582 -0.391438 -0.533197
0.329440 -0.262495 0.100014
-0.715589 -0.264499 -0.144322
0.748953 -0.225177 -0.168673
-0.613094 -0.236886 -0.346352
0.014736 -0.035346 -0.381806
0.000184 0.119746 0.164925
0.032217 -0.213907 0.242244
0.039469 -0.102392 0.175994
-0.213271 -0.334483 -0.552397
0.022389 -0.064991 0.199419
0.028727 -0.148072 0.221720
0.255366 -0.103378 -0.218294
-0.032017 -0.375395 0.182115
0.681961 -0.274125 -0.075104
-0.535453 0.007188 0.158526
-0.306756 0.183511 0.252243
0.233315 -0.312852 0.068722
-0.137048 -0.067164 0.291486
-0.270108 -0.426453 0.054875
0.584265 0.145398 -0.252898
-0.504801 -0.435886 -0.050085
0.164760 0.215363 0.105432
0.499703 0.192459 -0.192983
-0.346462 0.193382 0.174512
0.372296 0.249634 -0.017575
-0.309392 0.311632 -0.138780
-0.328479 0.332671 -0.344251
-0.742162 -0.245628 -0.102625
0.503614 0.098641 -0.000481
-0.498419 0.172184 -0.497138
0.131531 0.255074 -0.219129
0.264896 0.105086 0.230891
-0.080596 0.342903 -0.233257
0.179442 -0.063633 -0.378139
-0.204696 -0.464826 -0.147488
-0.162755 0.239427 0.256520
0.083531 0.081874 0.095849
0.109081 -0.119595 0.060532
0.125462 0.229924 -0.113374
0.634938 0.115601 -0.264511
0.075046 0.006425 -0.301380
0.675274 -0.202063 -0.062195
-0.162582 0.261826 0.188922
0.056558 0.151513 0.047001
-0.001387 0.254572 -0.243625
0.144010 -0.040886 -0.329364
-0.506801 -0.436911 -0.462033
-0.118799 0.196594 0.354764
-0.546797 -0.016620 0.141768
-0.029250 0.190458 -0.196821
0.476204 -0.451978 -0.369788
0.410183 -0.392344 -0.036755
0.148429 -0.406775 0.102348
-0.601395 0.023776 0.138661
0.011861 -0.051041 0.213283
0.161781 -0.004126 -0.084904
0.084299 0.340025 -0.081969
0.254396 -0.132184 -0.327899
-0.465132 -0.205431 -0.634552
0.072452 -0.197976 0.160848
0.438190 -0.216520 -0.567008
0.439200 0.208421 -0.257993
-0.256587 -0.098306 -0.529195
0.136948 0.363831 -0.070552
-0.106954 -0.369846 -0.317217
-0.451574 0.320158 -0.403088
-0.560272 -0.363572 -0.037593
0.682187 0.085494 -0.388182
0.261318 0.178406 -0.317746
-0.707926 -0.081893 -0.233515
-0.605428 0.176321 -0.085935
-0.800730 -0.142222 -0.036091
-0.574610 0.257687 -0.486897
-0.028613 -0.191202 -0.128397
-0.417077 -0.550146 -0.145157
0.468837 -0.501872 -0.207250
0.641605 -0.398113 -0.102639
0.170265 0.312498 -0.155296
-0.216800 0.193635 -0.366122
-0.376737 -0.256838 0.094204
-0.045653 -0.394791 0.166586
0.056970 0.170546 -0.247872
0.369771 0.014314 0.159084
-0.106274 0.388941 -0.128024
0.087173 0.348591 -0.090831
0.137372 0.142982 0.123085
-0.474918 -0.516257 -0.317455
0.088051 -0.297947 0.047337
-0.420426 -0.324635 -0.668812
-0.589757 0.254570 -0.303925
-0.346372 0.126751 0.299111
0.054104 0.397820 -0.049506
-0.476177 0.200990 -0.004846
-0.224345 0.381231 -0.275476
0.165094 -0.347614 -0.172057
0.071030 -0.295773 0.031935
0.692420 -0.159490 -0.296340
0.221370 -0.289628 0.098190
0.055346 -0.114192 0.158292
0.005241 0.060470 -0.249135
-0.204175 0.341624 -0.286679
0.112444 0.276982 -0.194678
-0.703429 -0.350430 -0.131685
0.425215 -0.498847 -0.264555
0.057268 0.288182 -0.172243
0.372751 -0.461992 -0.181079
0.276716 0.057959 -0.403515
-0.526991 -0.424432 -0.429590
0.076328 0.026892 -0.300265
-0.069760 0.139611 -0.158485
-0.716985 0.145998 -0.128584
0.376142 -0.296453 -0.504639
-0.233564 0.225142 0.214427
0.335724 -0.297761 -0.465931
0.223055 0.016532 -0.207384
0.704283 0.068397 -0.426046
0.570256 -0.003916 -0.551959
0.431105 0.078334 -0.446418
0.475809 0.154638 -0.022042
0.081161 0.244411 -0.036895
-0.413324 -0.271934 0.071023
-0.274286 -0.126755 -0.550990
-0.136012 0.349449 -0.253651
-0.360207 -0.533809 -0.126075
-0.240516 0.236894 -0.354605
-0.300713 -0.043104 -0.520420
-0.045408 0.314282 -0.232549
-0.250754 0.078657 -0.438156
-0.372853 -0.497539 -0.251113
-0.512838 -0.354762 -0.484512
-0.257109 0.157515 -0.401411
0.443127 -0.186100 0.087474
0.247012 -0.048356 0.238380
-0.108703 -0.299077 -0.533558
0.099679 -0.403422 0.194496
0.244894 0.025526 -0.253044
0.200508 -0.155927 -0.387810
0.335892 -0.310575 -0.460071
0.138602 -0.070745 -0.346614
0.240017 0.152605 0.240605
-0.719621 -0.003674 -0.243853
-0.320055 -0.285849 0.103897
0.053051 -0.282918 0.057058
0.091623 0.284750 -0.183132
-0.082228 -0.183908 0.256484
-0.030780 0.242464 -0.262237
0.065871 -0.343337 -0.189185
0.206888 0.140383 -0.328669
-0.192325 -0.260772 0.170999
0.254984 -0.332164 0.043006
0.209453 -0.175885 -0.368962
-0.604886 0.074183 0.162392
0.183411 0.093098 -0.165045
-0.711466 -0.368075 -0.109491
0.115985 -0.029265 0.225165
-0.535596 0.041676 -0.578320
0.548509 -0.466401 -0.134273
0.287808 0.034156 -0.419728
-0.757241 -0.140978 -0.117516
0.319683 0.292490 -0.074304
0.064496 0.430860 -0.082400
-0.476953 0.136038 0.190843
0.245680 0.167319 -0.322911
0.452219 -0.432187 -0.087675
-0.199599 0.295206 0.043262
-0.507455 -0.503510 -0.085056
0.007046 0.244805 0.100838
-0.147988 0.058417 -0.404391
-0.744808 0.148382 -0.169331
-0.280166 0.236222 0.124724
0.437604 -0.200313 0.085719
0.786314 -0.088663 -0.185455
0.388695 -0.141704 -0.527307
-0.120290 -0.065283 0.299585
-0.032643 0.061349 -0.353658
0.261897 -0.323503 0.054721
-0.003015 -0.310159 -0.372642
-0.045164 0.071106 -0.072478
-0.262905 -0.381728 -0.469193
-0.467042 0.307045 -0.314887
0.060487 -0.305054 -0.311566
-0.324652 -0.521339 -0.120976
-0.131286 -0.159259 -0.506177
0.217093 -0.077749 -0.157601
0.422964 -0.022269 -0.509585
0.136594 -0.172436 0.031026
0.468698 0.008963 -0.510436
0.489845 0.167384 -0.328197
-0.041462 -0.240765 0.048434
-0.682797 0.248888 -0.398849
0.286497 -0.190758 -0.240357
-0.113081 -0.029871 -0.088604
0.381230 0.250005 -0.042278
-0.722575 -0.212482 -0.152671
-0.791596 -0.019549 0.035745
-0.078166 0.417156 -0.195065
-0.400156 0.186689 0.130063
-0.752058 0.098734 -0.225528
0.007755 0.108533 0.155440
-0.606468 -0.326018 -0.322103
-0.492962 -0.486719 -0.428617
-0.145522 -0.363642 0.139517
0.304259 -0.126477 -0.468812
-0.778018 0.061475 0.053732
-0.689138 0.183373 -0.208166
0.732017 0.060696 -0.406058
0.100365 0.258212 -0.078289
-0.587406 0.145916 0.027827
-0.317886 -0.231376 0.132080
0.108311 0.021124 -0.313583
-0.523909 -0.447199 -0.063907
-0.346397 -0.445544 -0.376629
0.042624 -0.148005 -0.246015
0.633818 0.114859 -0.337845
0.105386 0.058419 -0.005643
0.286049 -0.262994 0.112656
-0.248282 -0.493287 -0.113857
0.288470 -0.311597 -0.409707
0.214427 -0.206491 0.177982
0.490855 0.124297 -0.007902
-0.134207 -0.054072 -0.114834
0.591943 -0.274516 -0.022814
0.448723 0.210796 -0.085230
-0.650433 0.192938 -0.190474
0.523987 -0.089903 -0.580489
-0.621988 -0.363640 -0.063987
0.030280 -0.098199 -0.406617
-0.635772 0.157769 -0.466109
0.075905 -0.307154 -0.286628
-0.739379 -0.295677 -0.087265
-0.387079 -0.009231 0.213683
-0.672627 0.186472 -0.409318
0.030151 -0.244357 -0.142202
0.137209 -0.271835 0.121430
-0.643690 -0.239826 -0.288221
0.110188 0.241965 -0.089899
0.714641 -0.316452 -0.146102
0.383660 -0.474635 -0.302875
-0.553728 -0.261468 -0.446718
0.654446 -0.327843 -0.074882
-0.350176 -0.384889 -0.564798
0.171914 -0.207663 -0.020233
0.187232 -0.245847 -0.033063
0.121965 0.217617 -0.101818
-0.734706 -0.269062 -0.064806
0.039085 -0.370255 -0.139982
0.465562 -0.059702 0.090616
-0.443556 0.255351 -0.130093
0.277322 -0.353219 0.014144
0.385038 0.235307 -0.227806
0.123616 -0.291994 -0.217302
0.317245 0.167569 -0.339589
-0.462535 -0.378562 -0.003349
0.154844 0.271864 0.048720
-0.472383 0.320882 -0.363210
-0.097589 -0.410496 0.136545
0.401456 0.223835 -0.014462
-0.560084 0.039760 -0.558504
0.595631 -0.234679 -0.371750
0.215042 -0.366831 -0.039680
0.418052 -0.475406 -0.175030
-0.794377 0.046247 -0.125252
0.198156 0.186187 0.173504
0.063086 0.211714 0.010151
-0.195323 -0.210828 0.194710
-0.425075 0.098174 0.251197
0.569073 -0.177440 -0.451853
-0.686013 -0.408055 -0.113557
0.680220 -0.190163 -0.289675
0.484213 -0.062755 0.076676
-0.018518 0.014697 0.242828
-0.585981 -0.603699 -0.186598
-0.118755 0.158310 -0.341921
-0.282100 0.270064 -0.355769
0.251433 -0.400242 -0.212270
-0.024785 0.087455 -0.337240
-0.628213 -0.492958 -0.213139
-0.248412 -0.018869 -0.485955
-0.170291 0.057359 -0.414446
0.099073 -0.309213 0.020738
0.008813 0.117950 0.149607
0.401909 0.111475 0.102454
0.479047 0.024208 0.064910
-0.518371 -0.037488 -0.604414
-0.211657 -0.100240 0.243069
0.119287 0.120461 -0.300050
0.134457 -0.218557 0.186555
0.275731 0.158196 -0.338667
-0.651501 -0.283934 -0.255587
0.276485 0.300597 -0.134226
-0.351179 0.315002 -0.199342
-0.264581 -0.047401 -0.507138
0.113299 0.079415 -0.311638
0.138367 -0.377898 0.002806
-0.119876 0.259383 0.247782
-0.621637 0.089472 0.157441
0.251180 0.007340 -0.255940
-0.422857 -0.210853 -0.656526
0.085558 0.282406 -0.192562
0.674182 0.093524 -0.290899
-0.387620 -0.385406 0.025223
0.093498 0.107453 -0.291678
0.187037 0.341329 -0.094258
0.237281 0.221993 0.199857
-0.423925 -0.102479 -0.602755
0.424760 -0.173150 0.101709
0.369689 0.018565 -0.465098
0.320677 -0.236754 -0.472452
0.317578 -0.404715 -0.066510
0.104234 0.171860 0.055594
0.280518 -0.091214 -0.449648
-0.087343 -0.256148 -0.535888
0.201420 0.149053 -0.321161
0.102004 0.112720 -0.021634
0.094387 0.120175 -0.010520
0.088839 0.219006 -0.001494
-0.568572 0.228991 -0.498677
-0.745441 0.161608 -0.210130
0.363333 -0.046447 0.164230
-0.015349 0.186687 0.166355
-0.191571 -0.181177 -0.542892
-0.066995 -0.187605 -0.075809
0.299826 0.147346 0.186770
-0.525439 0.061410 0.189934
-0.186126 0.357986 -0.130548
0.036879 -0.025264 0.156157
-0.650882 0.213397 -0.252949
-0.718719 -0.266687 -0.137602
-0.031534 -0.477755 0.131103
0.064014 0.157743 0.011191
-0.093143 0.235780 -0.292218
-0.326346 -0.255098 -0.637444
-0.206590 -0.429086 -0.257963
0.522896 -0.296515 -0.424348
0.374180 -0.347322 0.016422
-0.136352 -0.136710 -0.042996
-0.058671 -0.190416 0.263290
-0.125940 0.280886 -0.283656
-0.299667 0.340812 -0.215395
-0.006028 -0.065788 -0.405907
-0.611485 0.026224 -0.457315
-0.276725 -0.386089 -0.472646
-0.742603 0.168057 -0.226234
-0.549600 0.146364 -0.531918
-0.181767 0.197797 0.359627
0.121908 -0.418584 0.106136
-0.170269 -0.295999 -0.591248
0.259391 0.321396 0.030089
-0.419330 -0.434374 -0.498338
-0.449410 -0.024844 -0.574794
-0.206825 0.216305 -0.350518
-0.631612 0.167699 -0.477923
-0.266194 0.054105 -0.457036
0.444475 -0.487163 -0.186462
-0.619701 -0.113207 -0.384812
-0.680164 0.143140 -0.377513
-0.604371 -0.267772 -0.008493
0.054913 -0.021165 0.135206
0.432897 -0.214760 0.082694
0.541756 0.128378 -0.387340
0.235002 -0.149212 -0.416804
-0.093642 0.155022 -0.332840
0.080195 -0.302067 -0.296857
-0.417747 -0.457498 -0.426430
0.433074 -0.013305 0.112135
-0.268059 0.166389 0.350713
-0.128946 0.000919 -0.133859
-0.073138 0.129979 -0.188357
0.231168 0.145654 0.249717
-0.163278 -0.369373 -0.386529
0.166548 -0.119343 -0.365904
0.622997 0.111380 -0.375105
0.252169 0.318558 -0.101400
0.265047 -0.276332 0.105955
-0.073570 -0.007788 -0.187175
0.064253 0.299811 -0.028170
0.095471 -0.097362 0.076731
0.171198 -0.364192 0.045332
0.201627 -0.164073 -0.093404
-0.622431 0.097230 0.133000
-0.255601 -0.059086 0.244893
-0.644584 -0.109594 -0.339999
-0.703934 0.042140 -0.291840
0.116062 0.077984 0.143444
-0.410720 -0.342194 -0.679665
-0.105950 -0.184321 -0.012171
-0.653256 0.103467 -0.411295
-0.070761 0.157800 0.281306
-0.167017 -0.125063 0.249714
0.144143 -0.067611 0.287563
-0.313484 -0.215178 -0.611976
-0.126900 0.305890 0.098531
-0.700130 -0.091726 -0.243985
0.203419 -0.257837 -0.282247
0.616331 -0.240907 -0.027938
0.001018 -0.002401 0.213497
0.297545 -0.136637 -0.311698
-0.286232 0.330093 -0.166756
0.003108 -0.265045 0.030858
-0.838304 -0.035608 -0.009933
0.210601 -0.340022 0.021960
0.212597 -0.088637 -0.402510
-0.653727 0.227479 -0.461310
-0.094815 0.349209 0.006064
0.775905 0.016912 -0.316405
-0.538912 -0.200923 0.052915
0.455428 -0.402766 -0.435834
0.434874 -0.040521 -0.523758
0.042327 -0.408709 0.197199
-0.511638 0.142254 -0.517761
-0.752436 -0.184989 -0.030311
-0.516059 -0.410271 -0.455740
0.324288 -0.181952 -0.314284
0.034182 -0.188572 0.230999
-0.548291 -0.371114 -0.036250
0.048292 0.246327 -0.226532
0.598009 -0.299790 -0.035004
-0.201988 -0.073865 -0.493645
0.107739 0.177068 -0.058709
0.298983 0.254349 0.105049
0.112944 -0.284180 0.096095
0.308393 -0.421229 -0.297245
0.060282 0.176100 0.029984
0.407354 -0.446385 -0.115607
-0.481656 -0.441851 -0.506790
0.173719 -0.129002 -0.055870
0.300550 -0.409607 -0.088149
0.691626 -0.334097 -0.164212
0.329643 -0.444671 -0.262919
-0.017386 -0.115461 0.294135
-0.166187 -0.372559 -0.380390
0.433292 -0.307682 -0.538747
0.286407 -0.305209 -0.411566
0.255662 -0.282222 -0.392728
-0.546623 -0.260038 -0.460525
-0.593436 0.041254 0.150806
0.026468 -0.276471 0.031729
-0.040937 -0.482230 0.124848
-0.147658 -0.077159 -0.472089
-0.721249 -0.234144 -0.146249
0.158585 -0.340550 -0.179817
-0.079889 -0.072525 -0.160273
0.302616 0.073059 0.205336
0.275057 -0.259007 -0.191066
0.005093 -0.193546 -0.171023
-0.276096 0.337902 -0.178178
-0.819425 0.093119 -0.091961
0.601729 -0.431512 -0.111773
-0.070062 0.046924 -0.088183
0.285715 -0.185331 -0.241130
-0.584387 -0.435214 -0.318377
0.062384 0.169027 0.028976
0.121417 0.213144 -0.249738
-0.217706 0.306423 -0.012518
0.695638 -0.310345 -0.091862
0.316843 -0.438077 -0.249440
-0.145232 0.173836 0.408580
0.345340 -0.163371 -0.499296
-0.782834 0.109657 -0.172749
-0.171724 -0.332491 -0.508357
0.571192 -0.180163 0.010898
-0.258927 0.229173 -0.366332
-0.778104 0.053550 0.077620
0.106962 -0.324166 -0.197700
0.490113 -0.207216 0.054760
0.484399 0.162258 -0.046216
0.069248 -0.048008 0.175351
-0.087339 0.066603 -0.183949
-0.519382 -0.571910 -0.202568
-0.747889 0.118431 -0.082376
0.090299 0.399914 -0.131739
-0.147970 -0.309338 -0.549819
0.689806 -0.272655 -0.213585
-0.168704 0.328226 -0.019463
0.141002 0.219949 0.069342
-0.261664 -0.029388 0.257163
-0.678612 0.119603 -0.370740
0.191115 0.207243 0.147782
0.360061 0.255065 -0.004657
0.404828 0.233504 -0.213231
-0.739409 -0.071150 0.032215
0.222156 -0.364364 -0.026610
-0.165712 0.052100 -0.415122
0.649726 0.100915 -0.377244
-0.456638 0.286769 -0.240967
-0.321959 -0.232208 0.129924
-0.183595 -0.444552 0.082770
0.097851 -0.318024 -0.043997
0.270278 -0.182414 -0.346250
0.306905 0.084655 0.199687
0.003309 -0.124049 -0.431071
-0.107497 0.152192 -0.340174
0.076029 0.191070 0.002246
0.560843 0.062715 -0.038933
0.724618 0.044331 -0.407680
0.616534 -0.461991 -0.169643
0.521671 0.031496 -0.509385
0.152629 0.280648 -0.196901
-0.032311 -0.411068 -0.102476
0.397194 0.245815 -0.169780
0.433952 0.228780 -0.136372
-0.073624 -0.102559 -0.150601
-0.469834 -0.185299 0.090237
-0.080448 -0.191778 0.253307
-0.128626 0.006002 -0.143161
-0.066272 0.305785 -0.245713
-0.198406 0.024557 0.311174
-0.746508 -0.082645 -0.161421
-0.742913 -0.069031 -0.173698
0.665567 0.022360 -0.130640
-0.062570 0.011254 -0.050690
-0.786773 -0.072324 -0.090743
-0.013459 0.152034 -0.090730
0.311602 -0.391172 -0.362289
0.622713 -0.092038 -0.030318
0.379835 0.250145 -0.038807
-0.172040 -0.263206 -0.575595
-0.509216 -0.310310 -0.509492
-0.056484 -0.182921 0.105807
-0.516025 -0.135416 -0.568592
0.475682 -0.226538 0.056131
0.617380 0.101720 -0.167533
0.049911 -0.018802 0.126542
0.145936 -0.305811 -0.231381
0.070410 0.213927 -0.004382
-0.517289 -0.126085 0.099598
-0.233427 0.132340 0.350148
0.181891 0.053054 -0.145783
0.586428 -0.014880 -0.552073
0.377530 0.243798 -0.013119
0.198999 -0.028982 -0.387978
0.398392 -0.284613 0.060996
0.373039 -0.462606 -0.326246
0.459514 0.010144 -0.506323
-0.093175 -0.431369 -0.114372
0.239257 -0.394625 -0.195317
0.611940 -0.318570 -0.285371
-0.491871 0.242183 -0.459316
-0.421512 -0.372198 0.017356
0.297479 -0.429248 -0.196401
0.127326 0.113937 -0.069246
-0.193741 -0.049674 -0.478018
-0.245221 0.327878 -0.110623
0.075024 0.075349 0.043900
0.085846 -0.273981 0.167115
-0.704606 0.088954 0.059019
-0.717612 0.062020 -0.274549
-0.480119 -0.490952 -0.400327
0.349456 -0.412300 -0.069911
0.279758 -0.097570 0.205829
0.321489 -0.402901 -0.360216
0.005512 -0.471692 0.126629
0.612029 0.060543 -0.099941
0.064513 -0.264440 -0.165618
0.723494 -0.246572 -0.098303
0.385100 0.219652 0.022653
-0.073238 -0.325241 -0.411614
-0.262881 -0.448480 0.046940
0.357418 0.187872 0.099365
-0.524422 0.085221 -0.551759
-0.697545 -0.129201 -0.233416
0.559418 0.059871 -0.487174
0.119227 0.001578 -0.318701
0.541804 0.152677 -0.133529
-0.589960 -0.554874 -0.258904
0.043394 -0.077883 0.162678
-0.250194 -0.527993 0.012573
0.056903 -0.264124 0.216922
-0.769572 -0.085594 -0.117300
0.312553 0.266369 -0.198094
-0.036683 -0.321286 0.207197
-0.306537 0.369341 -0.316530
-0.460784 -0.353083 0.010147
0.194374 0.146809 -0.207481
0.437298 -0.426230 -0.442803
-0.353934 -0.072800 0.196031
-0.041636 -0.146305 0.098239
-0.661260 0.027493 -0.365226
0.583424 -0.068315 -0.002057
-0.518863 -0.353145 -0.014690
-0.230783 0.212911 -0.362449
-0.480591 -0.372884 -0.537072
-0.362395 -0.156479 -0.603495
-0.241208 -0.097251 -0.522098
0.326688 0.288220 -0.053901
-0.089273 0.400474 -0.208156
-0.535696 0.093745 0.201733
-0.278302 -0.391646 -0.457725
-0.672336 0.261512 -0.440651
0.066641 0.384958 -0.067554
0.473082 0.172116 -0.043825
-0.120000 -0.454164 -0.077693
0.205972 -0.227079 -0.372280
0.419807 0.217407 -0.249122
-0.032073 0.360177 -0.203889
-0.340813 0.132752 0.304488
0.030391 -0.184149 0.225919
-0.730081 -0.008077 -0.222586
0.136136 0.195189 -0.118980
-0.808174 -0.001695 -0.079909
0.419829 0.025961 -0.481398
-0.812377 0.012563 -0.077938
-0.598860 0.249701 -0.300157
0.036033 0.144184 0.088198
0.074512 -0.009614 0.153280
0.239612 0.305933 0.119371
-0.286591 0.219715 -0.382881
-0.534045 -0.562930 -0.126146
-0.736355 -0.087820 -0.178189
-0.048477 0.314574 0.166756
-0.738854 -0.041883 -0.192389
0.021441 -0.080790 -0.251674
-0.284687 -0.452111 -0.282380
0.541028 -0.180093 -0.488300
-0.549364 -0.020240 -0.553828
-0.093862 -0.215170 0.235873
0.252826 -0.003909 -0.254386
-0.599260 -0.399278 -0.305452
0.470014 -0.074489 -0.555671
0.765570 -0.036660 -0.289709
0.059613 -0.233600 -0.200497
-0.450709 -0.293177 -0.625378
0.023006 -0.442612 0.059679
-0.279962 -0.100954 -0.540504
-0.387846 -0.273639 -0.672989
0.426316 -0.249627 -0.556872
-0.691547 0.179346 -0.198877
0.307778 0.209366 0.140793
0.273750 -0.252406 -0.213929
0.046530 0.092902 -0.304054
0.411367 0.200075 -0.293890
0.534115 -0.076679 -0.576684
0.175694 0.327885 -0.128279
0.367012 0.262070 -0.051279
-0.557086 0.308772 -0.428632
0.262887 -0.137508 0.199300
-0.722097 0.153499 -0.157451
-0.594830 -0.470950 -0.284282
0.092813 -0.314626 -0.029835
-0.166299 0.234022 0.268608
-0.015456 0.280236 -0.236792
0.453635 0.033973 -0.487918
-0.333015 0.108625 -0.458295
-0.693447 -0.083249 -0.259897
-0.045031 -0.197307 0.265667
0.052860 -0.185423 0.233004
0.345241 0.247773 0.041285
0.712934 -0.037316 -0.138645
-0.026145 0.414888 -0.110001
0.040421 0.149171 -0.278508
0.320696 0.000052 -0.450277
0.361491 -0.456212 -0.174903
-0.166394 -0.373859 -0.376704
-0.493384 -0.438750 -0.046642
0.426427 0.204314 -0.278147
0.290686 -0.422513 -0.238004
0.012115 0.359164 0.044478
-0.668947 -0.004176 0.095822
0.251227 -0.012946 -0.247703
0.003584 -0.382791 -0.144817
0.446107 -0.258268 -0.558868
0.036347 -0.017467 -0.363629
-0.703101 -0.295715 -0.064644
-0.338356 -0.099065 -0.564499
-0.143055 -0.141153 -0.502144
0.368046 0.015068 -0.466168
0.108118 0.118092 0.101945
0.171505 0.146304 -0.311056
-0.610517 -0.527628 -0.231837
0.092367 0.104109 -0.000170
0.010087 0.392527 0.001352
-0.082004 -0.095582 0.300776
0.371942 -0.317039 0.044800
-0.032321 0.032060 -0.025069
0.182210 0.176987 -0.295694
0.057344 0.067124 -0.312334
0.774744 -0.080129 -0.178297
0.049177 -0.108163 -0.268396
-0.136642 -0.138024 -0.038408
0.596138 0.068416 -0.476480
-0.423145 0.272219 -0.156559
0.347574 -0.170010 -0.500994
0.051432 -0.232438 -0.464752
0.102526 -0.187607 0.222853
-0.294832 -0.500660 -0.147638
-0.136464 -0.200845 0.224844
0.477729 0.191979 -0.097440
-0.676475 -0.227568 -0.232252
-0.393630 -0.226850 0.101994
-0.487407 0.001098 -0.578042
0.378025 -0.298794 0.057731
0.105534 -0.095013 0.260992
0.607431 -0.396545 -0.232065
0.413380 -0.341345 -0.522367
0.034329 0.171370 -0.270003
0.186051 -0.348506 0.011262
-0.043765 -0.403566 0.163001
-0.498651 0.308694 -0.357972
-0.676101 -0.255921 -0.221312
0.039478 0.046727 -0.273483
0.165261 -0.247868 0.008644
0.011393 -0.075369 0.116862
-0.474051 -0.069070 -0.607448
-0.105513 0.385707 -0.117317
0.126491 -0.230457 -0.285467
0.230764 0.259427 0.162357
0.371365 0.262881 -0.127888
0.606292 -0.249677 -0.345681
-0.164407 0.279988 0.131741
0.087475 0.259401 -0.034187
0.549223 -0.018168 0.014828
0.562648 -0.164374 -0.470636
-0.135777 -0.369850 -0.351942
-0.539363 -0.548300 -0.298120
-0.635523 -0.409041 -0.233975
-0.468894 -0.207662 0.079449
-0.348930 -0.502542 -0.016864
-0.447992 -0.373095 -0.597638
-0.571051 0.173559 -0.036142
-0.094848 -0.076716 -0.143127
0.265479 0.282121 0.116344
0.286971 -0.162354 -0.252895
0.187773 0.046986 0.265468
-0.158140 -0.435549 0.098147
0.094026 -0.296080 -0.298312
-0.441793 -0.559852 -0.145562
-0.013772 -0.364407 0.195406
0.386179 -0.289840 0.061663
-0.427242 0.229326 -0.031650
-0.184989 -0.154857 0.227130
-0.286141 -0.303439 -0.644461
-0.267806 -0.480469 0.028830
0.590102 0.122477 -0.373873
-0.580516 -0.183273 -0.428965
0.352842 -0.378259 -0.432780
-0.116901 0.232655 0.332280
-0.480296 0.151286 -0.499855
-0.485408 0.272530 -0.232537
0.319044 -0.432335 -0.287805
-0.211941 -0.064093 -0.493007
-0.665933 -0.165645 0.016315
-0.042282 0.032158 -0.216601
0.552827 -0.099099 -0.533910
-0.745636 -0.038165 -0.181298
-0.262466 -0.319767 0.111522
-0.131222 0.171591 0.388137
0.188532 0.248714 -0.236048
0.303611 0.201000 0.152226
-0.117078 0.046695 -0.152505
-0.069204 -0.084019 0.312029
-0.102777 0.177540 -0.325474
-0.211378 -0.027083 0.279794
-0.229314 -0.491581 -0.096165
-0.074130 -0.294719 -0.505085
-0.048924 0.390229 -0.062805
-0.329133 0.296470 -0.116673
0.220947 -0.274255 -0.211421
-0.531572 0.301767 -0.376676
-0.614054 -0.036355 0.103166
-0.561326 0.209374 -0.505397
-0.073452 0.015582 0.344674
-0.451347 -0.192494 -0.659509
0.057799 -0.306633 -0.310026
0.128576 0.277601 -0.138733
-0.119644 -0.250676 0.207095
-0.558711 0.184771 -0.055214
-0.302773 -0.486884 -0.198911
0.223513 -0.081773 -0.167897
-0.316753 0.162023 -0.424631
0.018474 -0.463152 0.116399
0.042942 -0.214757 -0.198456
0.509502 -0.428534 -0.341996
0.501658 0.085723 -0.452234
0.268391 -0.186965 -0.208227
-0.617969 0.041375 0.140389
-0.410994 -0.561842 -0.073044
-0.022227 0.019660 -0.231173
0.286689 -0.319054 0.058549
-0.187466 0.282902 -0.308926
0.683547 -0.188320 -0.068090
0.224704 0.032863 0.265451
0.261111 0.297316 -0.155143
0.155459 -0.241690 -0.388927
0.702403 -0.035496 -0.377250
0.127467 -0.134957 -0.330224
-0.252370 -0.527491 -0.015242
-0.628179 -0.466195 -0.224185
-0.354400 0.280040 -0.097386
0.508341 -0.271335 -0.463526
-0.201383 -0.397869 0.098531
-0.306534 0.320476 -0.340980
0.127898 0.300310 -0.146791
0.045790 0.306937 0.003256
-0.575654 -0.436840 -0.080825
0.576459 -0.358605 -0.053226
-0.637556 -0.218387 -0.308430
-0.195299 0.323396 -0.292009
0.499480 0.034733 -0.500961
0.587503 -0.150428 -0.447180
-0.006534 0.197695 0.145436
0.171314 0.041218 -0.276619
0.237489 -0.154642 -0.163997
0.732889 -0.182687 -0.106124
0.491781 -0.286881 -0.474383
-0.257493 0.357943 -0.216428
0.450665 -0.514475 -0.315978
-0.172434 0.336155 -0.047961
-0.363546 -0.461166 -0.350005
0.379472 0.074003 0.139266
-0.056052 -0.186700 -0.094267
0.080297 0.342255 -0.075438
-0.448917 0.221272 -0.033389
0.134701 -0.366526 -0.036038
0.484562 -0.492718 -0.178384
0.076415 0.345673 -0.069618
-0.810224 0.044384 -0.095004
-0.537460 -0.167755 -0.515442
-0.042266 -0.205340 -0.491213
0.149495 0.241558 -0.185693
0.148605 0.096702 0.173805
-0.817349 -0.104935 -0.020473
0.194340 -0.321380 -0.015292
0.219154 -0.065094 -0.166629
-0.640280 -0.014672 0.102815
-0.594293 -0.062076 0.098736
-0.657092 -0.183971 0.010921
-0.174480 0.367894 -0.146510
0.090927 0.226579 -0.047748
-0.033337 -0.217521 0.163958
0.180652 0.362187 -0.033593
-0.558011 -0.094614 -0.507219
-0.586691 0.273321 -0.356993
-0.561177 0.011959 0.149926
-0.466707 -0.553244 -0.195590
0.188486 0.213317 0.139540
0.031041 -0.112653 -0.250174
-0.185846 -0.396309 -0.332187
-0.123733 -0.093832 -0.054416
0.428473 -0.469061 -0.422231
-0.546456 -0.326654 -0.013220
0.225955 -0.102479 -0.325183
-0.583462 -0.474847 -0.303833
-0.567427 0.179708 -0.050391
-0.263756 0.029372 0.285671
0.307228 -0.160470 -0.319488
-0.621626 0.123428 -0.478336
-0.553904 0.173594 -0.015586
-0.288038 -0.538420 -0.025144
-0.530952 -0.590921 -0.158958
0.215093 -0.149151 -0.400904
-0.264735 -0.448657 0.046059
0.401135 0.042642 0.128710
-0.261226 0.044709 -0.459615
-0.508456 -0.262000 -0.530731
-0.147737 -0.246927 -0.557070
-0.706890 0.214863 -0.324884
-0.659092 -0.438464 -0.178050
-0.040353 -0.338006 -0.333339
0.218755 -0.004158 -0.190893
-0.625650 0.209776 -0.506283
0.088240 -0.028193 -0.346832
-0.656619 -0.312613 -0.234295
0.483175 -0.326333 0.002749
-0.006154 0.414101 -0.083529
0.501912 0.170928 -0.311271
0.501278 -0.228761 -0.505698
-0.588381 0.023826 -0.499317
-0.188627 0.273649 -0.314052
-0.417300 0.203909 -0.446617
-0.259357 0.020482 -0.470940
-0.229274 0.243416 0.164278
-0.571205 -0.515437 -0.309982
-0.555633 0.042493 -0.567906
0.040311 -0.015371 -0.360888
-0.672550 -0.449598 -0.148442
-0.211629 0.357848 -0.160866
0.330628 -0.118192 0.171116
0.372720 0.191132 0.077081
-0.105360 -0.393165 -0.244705
0.122107 -0.104236 -0.370417
-0.323812 0.364814 -0.317151
-0.291439 -0.442636 -0.319201
-0.097670 -0.048291 -0.436293
0.424621 -0.037695 -0.517584
-0.726592 0.062819 -0.258169
-0.163890 -0.480545 -0.050725
0.309723 -0.158283 0.167476
-0.025085 0.355880 0.069906
-0.347712 -0.201537 -0.619769
-0.159562 0.339241 -0.041790
-0.512523 0.084834 -0.546870
-0.052437 -0.126870 -0.456293
0.114502 -0.075039 0.032162
0.179698 -0.192020 -0.389744
0.464096 0.154301 -0.004908
-0.307931 -0.156826 0.173635
-0.017428 -0.020734 0.035640
-0.048850 -0.466530 0.045488
-0.389313 -0.147969 -0.610734
-0.459698 -0.076920 0.148796
0.754890 -0.014313 -0.321410
-0.301120 0.166948 0.309177
-0.504446 0.168962 0.058042
0.611899 -0.456947 -0.179851
-0.564379 -0.240311 -0.435583
-0.630140 0.239114 -0.305804
0.504880 -0.464529 -0.320874
-0.655792 0.105618 0.067402
0.010330 -0.051877 -0.248846
-0.476086 -0.337436 0.011441
0.123551 0.064497 0.164007
0.148023 0.255454 0.051884
0.278976 -0.128199 -0.252036
-0.676650 0.104744 0.044910
0.028727 -0.264309 -0.473185
-0.024074 -0.009759 -0.227404
0.476353 0.164596 -0.037005
-0.587547 -0.346361 -0.040631
-0.492426 0.244448 -0.155985
-0.653538 -0.105475 -0.325029
-0.139592 0.350387 -0.051467
0.218370 -0.059551 -0.404658
0.167228 0.150682 -0.158565
0.295879 0.115336 0.201733
-0.063005 -0.004549 0.333496
-0.037956 -0.125080 -0.174942
-0.011248 0.391759 -0.022033
-0.618167 -0.296777 -0.312337
-0.477780 -0.292854 0.033025
0.439059 -0.505400 -0.264608
-0.199908 -0.026968 0.284750
0.554460 0.136327 -0.363719
-0.274873 0.151603 0.342084
0.302780 -0.212007 -0.301237
-0.416885 -0.120602 0.145225
0.171100 0.032898 -0.357874
-0.012247 -0.475592 0.117032
-0.574639 -0.057085 0.109628
0.196047 -0.146606 -0.090188
-0.715336 0.031196 -0.266135
-0.032488 0.016918 0.267910
-0.290280 -0.491651 0.013636
0.523368 0.043518 0.014126
0.352164 0.274356 -0.078966
0.378045 0.253398 -0.172835
-0.614101 0.136364 0.024572
-0.669680 -0.135379 -0.282725
-0.145555 0.154305 0.398669
-0.585232 0.147878 0.024507
0.064569 0.288514 -0.173720
-0.442668 -0.430777 -0.020991
-0.640027 -0.439010 -0.213297
-0.260418 -0.348334 -0.567286
-0.579557 -0.060063 -0.481311
-0.375483 0.269391 -0.395991
-0.358793 0.049259 -0.499011
0.383678 0.087691 -0.425775
0.180168 0.009073 -0.369076
0.098317 -0.330325 -0.189475
0.717416 0.010760 -0.391946
-0.130011 -0.266980 0.194509
-0.461009 0.179182 0.079452
0.666220 -0.303424 -0.222465
-0.332357 -0.356474 -0.629344
0.001088 -0.109742 -0.222819
0.147105 0.252613 0.052793
0.264030 -0.219601 0.152324
-0.288622 0.176555 0.295157
-0.708182 0.156926 -0.151055
-0.683970 0.019454 -0.319674
0.160731 -0.165908 -0.016561
0.056881 -0.435388 0.078636
-0.362915 -0.120225 -0.585576
0.044938 0.418044 -0.040753
0.636285 -0.420668 -0.114932
-0.774508 -0.198579 -0.061752
0.187222 0.209959 0.140368
-0.544343 -0.250038 0.026019
0.070421 0.078583 -0.287110
0.055715 -0.257252 -0.462025
0.030014 0.430588 -0.142139
0.126212 -0.399824 0.054531
0.694816 -0.050655 -0.111477
0.266696 -0.100644 -0.441120
-0.687180 -0.044871 0.067672
-0.687939 -0.038163 -0.288646
0.689472 -0.071699 -0.096294
0.071692 -0.157780 0.256963
-0.660665 -0.070133 -0.326273
0.602926 -0.448358 -0.126022
-0.125675 -0.365523 -0.352867
0.004309 -0.475863 0.137807
-0.562768 0.258630 -0.481367
0.017988 -0.114901 0.228089
-0.331572 -0.073336 -0.548728
-0.262751 -0.435155 -0.307274
0.125442 -0.324952 -0.145549
0.125078 0.204970 -0.256656
0.215359 0.292494 0.115995
-0.045336 -0.107938 0.310255
0.389823 -0.342998 0.017549
-0.102649 -0.203088 0.044471
0.041815 0.376742 -0.017993
0.218113 -0.339642 0.025115
-0.618927 -0.077096 -0.401070
-0.840680 -0.025618 0.011744
-0.581262 0.196193 -0.116968
0.605477 0.133510 -0.264818
-0.022351 -0.475346 0.104112
-0.557324 -0.211139 0.039939
-0.060131 -0.168492 -0.111523
0.195223 -0.332817 -0.267949
0.038007 -0.451836 0.105681
0.719546 0.070205 -0.354915
-0.692457 -0.236786 -0.030611
0.165388 -0.157854 -0.378761
-0.533322 -0.202242 -0.508988
0.042517 -0.232148 0.230566
0.203965 -0.183274 -0.089873
-0.042146 0.012882 -0.023916
0.214207 0.103957 -0.352318
-0.257059 -0.190262 0.178633
-0.485027 -0.233912 -0.585848
-0.663557 0.137860 -0.406244
-0.285995 -0.048794 0.237061
0.341468 -0.285459 -0.476409
-0.484785 0.330455 -0.407135
-0.621320 -0.225952 -0.335534
-0.179020 0.396387 -0.238232
-0.155359 0.235240 0.278106
-0.233450 0.152496 0.360223
-0.167503 -0.137939 -0.510977
-0.449737 -0.465044 -0.041156
-0.191939 -0.041112 -0.472964
-0.670918 -0.385742 -0.177683
0.514170 0.162081 -0.325748
-0.701659 0.038604 -0.294621
-0.044154 -0.226591 0.136321
0.134831 -0.086054 0.283281
0.459949 0.136231 0.019712
-0.037662 0.353075 0.063237
0.167431 -0.282287 0.108483
0.190927 0.002998 -0.376940
0.154953 -0.079865 0.276907
-0.395619 0.294889 -0.192014
0.182640 -0.365106 -0.104032
-0.178635 -0.502906 -0.000803
0.070655 -0.262825 -0.178250
-0.063151 -0.226281 0.023973
-0.662735 0.233757 -0.328869
-0.133283 -0.213681 0.219781
0.253108 -0.082420 -0.430336
0.710571 -0.275902 -0.093347
-0.685282 0.178199 -0.382377
-0.460915 -0.052353 0.160569
-0.358730 -0.326286 -0.686896
-0.566341 -0.276351 -0.417144
-0.584051 0.290977 -0.407259
-0.207143 0.390150 -0.263666
0.258201 0.213129 -0.283496
-0.034339 -0.422088 -0.071560
-0.713400 0.212131 -0.343986
-0.612437 -0.554347 -0.217300
0.645801 0.101802 -0.379889
-0.120262 0.257073 0.254312
-0.185988 0.322116 -0.021797
-0.658983 -0.401556 -0.193399
-0.072379 -0.179878 0.262707
0.605633 -0.377868 -0.076275
0.252478 0.068089 -0.387457
0.267153 -0.388036 -0.292684
0.744958 -0.181359 -0.115896
0.155401 -0.342181 -0.165157
-0.099150 0.163653 0.331723
0.077226 0.127305 -0.273729
0.425880 -0.216794 -0.558083
0.495685 0.128571 -0.396964
0.200521 -0.321986 -0.091549
-0.569449 -0.302952 -0.400446
-0.185871 -0.291971 0.158145
-0.156113 -0.261897 -0.568138
0.714323 -0.245357 -0.200781
0.399214 0.243340 -0.179375
0.369608 0.236833 -0.234566
0.212530 -0.189873 -0.103101
-0.330331 -0.452315 -0.336772
-0.034162 0.143366 -0.313268
0.144954 -0.194681 -0.325513
-0.585581 0.179889 -0.072815
0.620084 -0.367804 -0.236635
-0.094577 0.071743 0.360931
0.061955 -0.284338 -0.117088
0.105605 -0.044893 0.036344
-0.619581 0.294567 -0.460945
-0.144449 0.088842 -0.387655
0.163972 -0.073356 -0.060569
-0.663815 -0.483831 -0.141993
-0.325814 0.065445 -0.476826
0.279913 -0.242423 0.130612
0.413230 0.216991 -0.255401
-0.448438 -0.115162 -0.619571
0.018274 -0.365445 -0.179623
0.425652 0.212849 -0.257053
-0.089808 -0.332990 -0.408124
0.253966 0.224269 0.191574
0.110378 -0.275773 0.110758
0.161126 0.061586 -0.110650
-0.384987 -0.385090 0.026506
-0.655501 -0.266939 -0.255118
-0.265879 -0.263043 0.138448
0.718076 -0.118335 -0.292546
-0.389050 -0.128022 -0.600641
0.247094 -0.063918 0.234273
-0.453801 -0.226490 -0.646991
0.082799 0.145980 -0.271236
-0.299682 -0.325583 0.092717
-0.677838 0.083380 -0.357316
0.581975 -0.179214 0.003828
0.107149 -0.323338 -0.070179
-0.617427 0.261190 -0.357310
0.615342 0.003842 -0.059284
0.438291 0.225838 -0.130588
0.234621 -0.249585 -0.119698
-0.775649 0.066990 0.039890
0.143198 -0.003069 0.242508
0.128619 0.265717 -0.208640
0.719141 -0.249694 -0.095593
0.254539 0.107604 -0.367211
0.606303 -0.029571 -0.513600
-0.355703 -0.092514 -0.568630
-0.570852 0.120579 -0.553897
-0.441033 0.216761 -0.450323
-0.244404 0.206295 0.258417
-0.768871 0.056693 -0.176994
-0.084362 -0.111453 0.013036
0.044493 -0.280392 -0.084725
0.126321 0.193705 -0.100110
-0.293427 -0.060636 -0.526081
-0.006269 -0.104838 -0.425549
0.041244 0.308570 0.011044
0.157072 0.230450 0.083375
-0.422791 0.274206 -0.162146
-0.008852 0.158684 0.165759
-0.593631 0.158963 -0.019170
-0.594380 0.154803 -0.007480
-0.339264 0.154596 0.300599
0.095239 -0.165401 -0.412498
-0.311496 0.199463 -0.403652
0.372872 0.026912 0.155166
0.071952 0.016266 0.073862
0.442488 0.180794 -0.008353
0.362677 0.266300 -0.135357
-0.693726 -0.348453 -0.087028
-0.105964 -0.028965 0.323876
0.210995 -0.106290 -0.134545
0.055635 0.196396 0.030301
-0.659114 -0.300998 -0.048500
0.746544 -0.187313 -0.200866
-0.323453 0.046764 -0.485165
0.509480 0.133176 -0.043060
-0.303601 -0.538974 -0.042223
-0.494863 0.326262 -0.406589
0.684767 0.026655 -0.448861
-0.344154 0.169770 0.248772
0.105031 -0.081173 0.249743
0.212588 -0.069611 -0.152560
-0.195169 -0.473975 -0.108310
0.032283 -0.425373 0.018675
-0.079816 0.050416 -0.379277
-0.450551 -0.215011 -0.657748
0.193378 -0.296791 -0.176426
-0.692509 -0.231645 -0.028061
0.449296 0.207205 -0.074904
0.400388 0.161037 -0.355766
-0.069583 -0.475088 0.116186
-0.201301 0.294475 0.043424
0.417638 -0.494425 -0.256985
0.043795 -0.420775 0.018630
-0.121204 -0.385650 0.138890
0.263259 0.167919 0.213326
-0.701000 0.119316 -0.028545
0.597317 0.026372 -0.528717
0.378827 -0.423994 -0.083036
-0.208179 -0.335961 0.126605
0.481044 -0.218379 -0.541375
0.316325 -0.325629 -0.430968
-0.388960 0.181089 0.160507
-0.200924 -0.227363 0.184044
-0.617247 -0.450146 -0.251111
0.228728 0.238908 0.175219
-0.007524 -0.233771 -0.490600
0.557491 -0.070478 -0.549349
0.254473 -0.265862 0.117929
0.359906 0.270120 -0.086786
-0.854730 0.032876 0.035012
0.184123 0.114558 -0.333506
0.738402 -0.060187 -0.309028
0.090878 -0.246313 -0.228371
-0.622596 0.207140 -0.510884
0.130025 -0.225482 -0.427704
-0.099326 -0.037718 -0.156032
0.488768 0.198442 -0.197775
0.220126 -0.264331 0.126016
0.066389 -0.157116 0.155359
-0.665930 0.089383 -0.381935
-0.158365 0.096317 -0.389859
0.225830 -0.238071 -0.315074
0.123678 -0.005249 -0.013550
0.225739 -0.285506 -0.357924
-0.108286 0.115761 0.368375
0.433201 -0.374798 -0.487664
0.246446 -0.228306 -0.319790
0.373185 -0.059723 0.156370
0.122897 0.002494 -0.015274
-0.273171 0.242652 0.113688
-0.395442 -0.427213 0.000963
0.063642 0.029571 0.083862
0.068268 -0.454875 0.151350
0.543708 -0.437256 -0.102867
0.103812 0.258295 -0.196830
-0.017602 -0.146472 0.131336
0.683323 -0.328568 -0.090496
-0.452421 0.036775 0.208794
0.173798 -0.368768 0.017865
-0.296107 -0.172378 0.170903
-0.307643 -0.009776 0.247338
0.394833 -0.089326 0.138506
0.180165 0.086334 -0.344540
0.213759 0.350123 0.039913
-0.459998 -0.274469 0.049820
0.076667 0.048810 -0.297185
0.137269 0.277486 -0.154860
-0.065867 -0.179674 0.265591
-0.368930 0.250979 -0.402405
0.184202 -0.297520 -0.185277
0.188461 -0.177961 -0.378967
-0.087338 -0.280461 0.205989
0.009681 -0.078588 -0.241892
-0.180444 -0.452273 -0.156261
0.173192 0.044366 -0.274242
-0.607056 0.214366 -0.203066
-0.117129 -0.147606 -0.056740
0.301778 -0.131016 -0.467292
-0.000020 0.136160 -0.060183
-0.064941 -0.440926 -0.051412
-0.072618 0.117947 0.301114
0.310114 -0.402633 -0.341911
0.069005 0.303837 -0.038665
0.745467 0.053051 -0.336449
-0.352690 0.317404 -0.362231
-0.283676 -0.532921 -0.036534
0.132309 0.104805 -0.074770
0.675381 -0.366991 -0.161400
-0.640483 -0.098795 0.060635
-0.385273 -0.096563 -0.583286
0.226051 -0.093007 -0.412236
0.166813 -0.255701 -0.312803
-0.453799 -0.384307 -0.002492
0.617309 -0.089282 -0.452944
-0.109806 0.364805 -0.059216
0.089662 0.234773 -0.223771
0.144310 -0.194075 0.207614
-0.411057 -0.286470 0.064718
-0.405531 -0.080941 0.169919
-0.399451 -0.289209 0.068304
0.489288 -0.008626 0.064971
0.073624 0.255195 -0.049979
-0.511577 -0.400909 -0.035478
-0.177168 0.091338 -0.400381
-0.151078 -0.144726 -0.507358
0.041074 -0.361343 -0.164562
-0.268462 0.274136 -0.347907
-0.372758 -0.348943 0.049816
-0.553697 0.242783 -0.224785
-0.635651 -0.200926 -0.319141
0.303067 -0.131149 -0.468207
0.570628 0.077307 -0.063480
-0.399813 -0.510323 -0.244905
0.297015 0.156113 0.185644
-0.397158 -0.426907 -0.494223
-0.385643 -0.242719 -0.656577
0.253917 -0.258371 -0.403519
-0.559895 -0.116919 -0.494561
-0.374911 0.264075 -0.073776
-0.425533 -0.219847 0.091871
-0.027149 0.374094 0.012280
-0.044312 -0.181222 0.274023
0.004579 0.228152 0.112263
0.052724 -0.338761 -0.218883
0.412791 0.224016 -0.038367
0.611353 -0.410701 -0.215884
-0.107546 0.398664 -0.158990
-0.166820 -0.229795 -0.556648
0.064955 -0.091167 -0.388288
-0.652395 -0.221160 -0.279684
0.519103 0.075657 -0.465356
-0.029882 -0.182632 -0.474561
-0.082608 -0.127911 0.027999
0.248477 -0.181841 0.182524
0.055201 0.030481 0.099194
0.736625 0.060612 -0.361927
-0.605613 0.302327 -0.467602
-0.005951 -0.412288 -0.067014
0.271977 0.267277 0.127499
-0.196758 0.301187 0.028579
-0.428321 0.146863 0.216682
0.163479 -0.116794 -0.363778
-0.206703 0.245261 0.185894
0.310930 -0.375174 -0.015363
0.181747 -0.216554 -0.401145
-0.614837 0.265669 -0.500084
-0.441862 -0.265390 -0.653242
0.177362 -0.335525 0.015937
0.025912 -0.406798 -0.045235
0.419363 -0.185760 0.100562
0.278175 -0.024723 -0.435407
0.568191 -0.029084 0.001115
-0.378824 -0.335943 -0.700311
0.142786 0.185235 -0.276129
0.627712 0.102230 -0.189259
-0.672390 0.242985 -0.432948
0.371157 0.046761 0.153279
-0.271894 -0.459064 0.037795
0.127881 0.367788 -0.061453
0.109329 0.021524 -0.312947
-0.369558 0.191850 0.151315
-0.549921 -0.284445 0.006421
-0.245992 -0.260198 -0.605676
0.209538 -0.214244 0.173440
-0.466368 -0.439873 -0.536045
-0.434985 -0.207692 0.093917
-0.788789 0.067846 -0.144512
-0.377418 -0.459956 -0.370388
-0.619734 -0.236101 -0.334319
-0.471196 -0.435535 -0.035556
-0.175544 -0.448148 -0.162843
0.287927 0.168103 -0.333126
-0.191189 0.003843 -0.450150
0.503358 0.027344 -0.508075
0.009825 -0.208279 -0.161512
-0.089526 -0.337528 0.176499
-0.136054 0.315438 -0.270687
-0.065163 -0.391032 0.160133
0.041632 0.285175 0.019923
0.375631 0.214458 0.045431
