ply
format ascii 1.0
element vertex 1689
property float x
property float y
property float z
end_header
-0.390221 0.160447 -0.415614
-0.406739 0.170557 -0.483004
0.994807 -0.257947 0.068241
-0.014493 -0.014841 -0.226061
1.057626 0.048406 -0.052317
0.222828 -0.388625 -0.296940
-0.696997 -0.003923 0.129953
0.591193 -0.500373 0.239453
-0.466018 0.195577 -0.338239
0.422493 0.458773 -0.315510
0.022372 -0.072901 0.287375
-0.010535 0.175170 -0.157150
0.684190 0.179083 0.500030
0.955991 0.004281 0.328757
-0.639433 -0.150469 -0.329074
-0.454662 -0.194929 0.024793
-0.325381 0.103929 0.159121
0.952434 -0.032161 -0.332109
0.314946 -0.509558 0.148772
-0.392447 -0.166795 -0.122169
-0.661684 -0.122355 -0.147862
0.549300 0.235394 0.508121
0.116805 0.049596 0.408325
-0.372297 -0.142877 -0.528899
0.541995 -0.376791 -0.415080
0.129843 0.034894 0.421656
0.445900 -0.503557 0.243990
-0.584064 0.184823 -0.328016
0.388003 0.484181 0.262778
0.954317 -0.217965 0.249228
-0.302578 0.060907 0.295765
1.043280 -0.120613 -0.079541
0.161024 0.441813 -0.076962
-0.695526 -0.037870 0.039136
-0.299365 0.057250 0.385367
-0.475273 -0.197199 -0.371708
0.935719 0.317521 -0.159237
0.141221 -0.295915 -0.315815
0.518923 0.011345 -0.561730
0.243513 0.430157 -0.255355
1.052705 -0.002565 0.102654
0.099629 -0.232232 0.319059
-0.493208 0.150129 0.650018
-0.686575 -0.047261 0.336342
0.968673 0.106752 -0.291507
-0.462435 -0.189855 0.649303
-0.502979 -0.199987 -0.030813
0.843035 0.434408 0.098201
0.359946 -0.101505 0.534891
0.783735 0.400778 0.273676
0.414233 0.263985 0.488859
-0.342420 0.104594 -0.556904
0.153143 -0.401596 0.185575
0.838238 0.336813 0.296949
-0.441398 0.192109 0.127577
0.026010 -0.005636 -0.302207
0.772978 0.479238 0.108816
-0.559473 0.188960 0.261536
-0.460844 -0.198193 0.530664
0.689544 -0.083727 0.522580
0.900008 -0.390692 -0.058137
0.593127 -0.552310 -0.048045
0.735856 -0.227238 -0.456904
0.116149 -0.321910 0.255067
-0.052522 0.101974 -0.018637
-0.689710 0.010304 0.433869
0.858443 -0.005008 -0.433036
0.267643 -0.475486 0.189605
0.705661 -0.458902 -0.251276
-0.334799 -0.108805 -0.114422
-0.382290 -0.164004 0.138274
-0.670173 0.021795 0.654128
-0.013979 0.061184 -0.219339
-0.704915 -0.040785 -0.390230
0.738195 -0.508989 -0.014832
0.240519 0.274739 -0.416191
0.365641 0.440821 0.321949
-0.342257 0.104647 -0.548487
0.401528 0.101554 0.544075
0.904030 0.211898 -0.328461
0.382182 -0.415903 -0.359403
0.618861 -0.546330 0.058504
0.650728 -0.531793 0.102493
0.452003 0.272090 0.489582
0.845370 0.099869 -0.432172
0.906381 -0.232485 -0.311179
1.042959 -0.094626 0.110764
0.673123 0.182343 0.502799
-0.690754 -0.033227 0.280653
1.023917 -0.010091 0.203559
0.565627 -0.107708 0.547831
0.320226 -0.478824 0.233315
0.504205 0.272393 0.491743
0.297478 -0.464006 -0.244357
0.963718 0.194295 0.251481
1.033675 0.147282 -0.097601
0.357201 0.015705 -0.543497
0.231274 -0.493700 -0.008572
-0.393912 -0.161954 -0.486189
0.917413 0.042140 -0.374189
0.638945 0.416607 -0.350942
-0.299807 0.034802 0.137363
-0.675164 0.064582 0.610129
0.843858 0.318695 0.310197
-0.435189 0.189621 0.051780
1.057870 -0.012113 -0.068274
0.949830 -0.092169 -0.324322
0.789076 -0.107019 -0.470116
0.608316 -0.549203 0.051676
0.376632 0.508531 0.205436
0.744380 0.165665 0.478394
-0.653451 0.115863 0.413840
-0.025805 -0.194200 -0.042927
0.313663 0.251116 -0.467168
-0.298199 0.065125 0.544572
0.590383 0.542079 -0.118358
0.437163 -0.436702 0.348382
0.242414 -0.212915 0.452044
0.725052 0.259365 0.445093
0.087333 0.300616 -0.235294
0.391481 0.280149 -0.475150
-0.420902 0.181206 -0.239648
-0.469335 -0.198062 0.124228
0.687028 -0.416444 -0.328057
-0.410002 0.175602 -0.247820
0.519121 0.121701 0.548498
-0.624045 0.167432 -0.629566
-0.655512 -0.127516 -0.059970
-0.553666 0.190112 0.364131
0.812745 -0.424373 0.195258
0.536024 -0.524392 -0.199354
0.096715 -0.328733 0.212893
-0.584521 0.180650 0.057061
0.056791 -0.255291 0.233280
0.292145 -0.156092 0.498456
0.757179 0.296152 -0.402716
-0.462586 0.051572 -0.651044
-0.672829 -0.120598 -0.569816
-0.352925 -0.120622 -0.538071
1.040546 -0.120479 0.096548
0.969560 0.268497 0.153134
0.839512 0.443277 -0.065301
1.011232 -0.163563 -0.167082
0.650608 -0.340595 -0.421117
0.442175 -0.556330 -0.056392
0.943935 -0.309849 0.151467
-0.661710 0.119874 -0.067693
-0.576877 0.187083 -0.264599
-0.000921 0.080863 0.242005
0.399310 0.541608 0.112022
0.650819 -0.523569 -0.138406
-0.446578 0.188899 -0.529591
0.021645 -0.232315 -0.182301
-0.437808 0.062161 -0.651620
0.086569 0.070788 0.374287
0.593553 -0.551226 0.058524
0.260847 -0.417383 0.290903
0.217381 0.485956 0.000488
-0.572934 -0.155677 0.651870
0.976023 0.219643 0.202945
0.022391 -0.097881 0.279886
-0.631783 -0.151854 -0.068542
0.049475 0.077275 0.327236
-0.550664 0.194340 -0.146662
-0.313610 0.078318 0.099558
-0.513731 -0.199920 -0.347819
-0.613803 -0.117483 0.652819
-0.621546 -0.161182 -0.133724
-0.614678 0.163672 0.012696
0.787780 0.299206 0.379059
1.030530 -0.150809 0.108726
0.222462 -0.119610 0.474018
0.833761 -0.146061 0.428132
0.093275 -0.211158 -0.325598
0.113490 -0.203327 0.353970
-0.359746 -0.142632 0.000670
0.783923 0.176639 0.451900
-0.698148 0.025386 0.012397
0.042831 0.324989 -0.037491
0.963806 -0.265528 0.174371
0.918077 0.025897 0.374924
0.546367 -0.428206 -0.361272
0.974550 0.297780 0.046442
0.551852 0.546513 -0.121087
0.466649 -0.438221 0.350538
0.575484 -0.414399 0.372293
0.534467 -0.194392 0.526356
-0.457939 -0.194037 -0.276562
0.274281 -0.280154 -0.431962
1.059980 0.031655 -0.038050
0.890411 0.103477 -0.391023
-0.454946 0.197232 0.511593
0.295306 -0.205685 -0.481478
-0.642143 0.126258 -0.646873
-0.692263 0.061498 -0.081860
0.804487 -0.454462 -0.129534
-0.501393 -0.199929 -0.289763
0.164139 0.356479 0.275948
0.300501 -0.403928 0.336258
-0.007532 0.180133 -0.161217
0.759503 -0.197918 0.457726
0.734848 -0.347548 0.374277
0.120306 -0.302593 -0.283368
-0.515750 -0.141224 -0.649809
0.270813 0.056797 -0.510171
0.356290 0.518624 0.162493
0.508675 -0.085801 0.555509
0.231964 -0.178401 0.460822
-0.649846 0.116731 0.542340
0.975516 -0.051766 0.295350
0.777676 -0.068925 0.483914
-0.467685 0.185767 -0.650926
0.333180 0.069835 -0.532279
0.426414 0.279739 0.482036
-0.515350 0.199788 -0.264830
0.709360 -0.487839 0.184956
-0.425292 -0.124665 -0.651911
0.376017 -0.545433 -0.056201
0.421414 0.024926 0.556085
-0.518658 0.198193 0.351981
-0.707306 0.054551 -0.638714
-0.345726 0.133280 0.220155
0.295756 -0.162086 0.498036
0.395901 0.382108 -0.398978
0.833318 -0.044389 -0.450506
0.470983 0.379492 0.413728
-0.439874 0.186974 -0.468852
0.392149 -0.400779 -0.379172
-0.309231 -0.021029 -0.351951
0.041163 0.318333 -0.064493
0.019283 -0.179653 0.229485
0.297699 -0.351176 0.389586
-0.576278 -0.187083 -0.238822
0.286315 0.392899 -0.340582
0.665049 0.340865 0.415448
-0.301861 0.063084 0.357182
-0.389705 -0.169188 0.155417
-0.008165 -0.202108 -0.130183
0.695117 0.517277 0.101884
-0.002142 0.207535 -0.144256
0.931557 -0.358812 -0.032242
-0.705767 0.055856 -0.588631
0.126557 -0.028333 -0.419243
0.908896 0.374462 -0.092787
0.055684 -0.185240 -0.290339
0.675779 0.418439 -0.331719
-0.344828 -0.106480 -0.610075
0.502193 0.458365 0.325459
0.848794 0.414019 0.151521
0.647963 0.530185 0.114184
-0.571017 -0.190635 -0.452742
0.038159 0.249297 -0.201446
1.059502 -0.050356 0.021174
0.500647 0.076749 -0.556899
-0.698760 0.017582 0.022355
-0.336776 -0.102898 -0.358210
-0.456098 -0.068602 0.649156
0.245042 -0.176022 -0.469084
-0.603916 0.164805 0.405729
-0.404932 -0.177804 0.149369
0.628458 -0.260058 0.481555
0.022461 -0.291519 -0.054772
-0.635918 -0.150105 -0.159922
0.841429 -0.264330 0.359977
0.925900 0.177441 -0.321171
0.552499 -0.518306 0.211257
0.612309 0.550518 -0.018532
0.127705 0.394386 -0.147928
0.554871 0.365935 0.423211
1.046997 0.127880 0.021623
0.124719 -0.360528 0.212629
0.303236 0.503808 -0.153260
0.023771 -0.284216 -0.091947
0.396102 -0.453111 0.316106
-0.681324 -0.059772 0.412715
0.083668 -0.305869 -0.221672
0.623671 -0.066925 -0.544292
0.216513 -0.459066 0.157863
-0.438177 -0.186967 -0.396620
-0.696278 -0.079548 -0.547980
-0.616098 -0.166802 -0.246149
0.496936 0.540103 0.155906
-0.593587 0.176460 0.024822
-0.612171 0.087548 -0.647570
-0.656818 -0.138520 -0.538715
-0.692823 -0.052628 0.007797
0.237743 0.213266 0.449184
-0.614084 0.153172 0.626475
-0.694319 0.074014 -0.645661
0.672776 0.534229 -0.027831
-0.609891 0.160251 0.422108
0.758499 0.157889 -0.473578
0.496663 0.458666 0.325026
-0.426640 -0.182838 -0.332334
0.243913 0.053651 0.497562
-0.591847 -0.183691 -0.547650
-0.621667 0.167059 -0.502696
-0.295578 0.004420 0.190162
0.162004 0.421675 0.154843
0.666875 -0.510439 0.166226
0.628379 0.293844 0.461737
0.007856 0.260654 -0.076685
0.168555 -0.169442 -0.421261
0.714019 -0.355690 0.379088
0.121629 0.310494 0.276506
-0.674976 0.090453 0.148448
0.084348 0.378443 -0.006397
-0.055774 -0.081849 -0.021043
0.479734 0.364311 0.427661
1.016809 -0.071702 0.209271
0.184861 0.047150 0.463132
-0.045335 0.135743 -0.014512
1.022724 -0.153156 -0.139033
0.843165 0.423641 0.137089
-0.667074 0.115862 -0.172555
0.568061 0.557442 -0.025560
-0.635535 0.158480 -0.581218
-0.440441 -0.186031 -0.598160
0.933103 0.325012 -0.151050
0.302154 -0.521728 0.068442
0.267691 0.473838 -0.193743
-0.698151 -0.013824 0.061328
0.381892 0.058956 -0.546445
0.673678 -0.526962 0.090413
-0.442748 -0.188320 -0.435405
0.932338 0.142918 -0.329675
-0.436833 -0.190463 0.091564
-0.587766 0.185618 -0.571450
0.581940 -0.466317 -0.303087
0.122682 0.359829 0.210193
0.244947 -0.363662 0.344565
0.963571 0.059700 0.312354
0.151913 -0.194017 0.396510
0.840883 0.072072 -0.441170
0.707553 0.413276 0.319612
0.787969 -0.481069 -0.040906
0.884706 -0.257523 0.318920
-0.658493 -0.027273 -0.646494
-0.378787 0.158258 -0.047685
0.866265 0.130880 0.405891
-0.569873 0.189326 -0.232145
0.020482 -0.289684 0.046612
0.493875 0.018808 -0.561815
0.657592 -0.536310 0.059690
0.376575 -0.326805 0.440445
-0.310206 -0.071685 0.130540
-0.458352 0.195154 -0.091392
-0.487200 -0.198814 -0.385319
1.059817 0.042995 -0.027995
0.209676 -0.370941 -0.306825
0.031291 -0.310269 0.008486
0.650885 -0.029127 -0.540752
0.422062 0.016413 -0.556492
0.475669 -0.006779 -0.561595
0.955370 -0.255121 0.208754
0.899581 -0.388287 0.074801
0.982433 -0.252449 -0.139837
1.052852 0.002238 0.101866
0.045859 -0.303494 -0.132943
-0.053534 -0.015424 -0.096899
1.011965 0.142643 -0.183225
-0.507135 -0.199999 -0.338597
-0.702634 0.029970 -0.208302
0.050400 0.172380 -0.290123
-0.665668 -0.103057 0.248889
0.272812 -0.082006 0.507629
0.124133 0.387323 0.157264
0.930988 0.294024 0.209347
0.604488 0.245429 0.494847
0.456805 -0.441368 0.345479
-0.458129 -0.126370 0.649203
0.504766 -0.185101 0.530794
-0.440945 0.193192 0.314283
0.911596 -0.278620 0.262654
0.164779 0.447131 -0.061057
0.989767 0.259685 0.093376
-0.512398 -0.198753 0.426427
-0.662604 0.121803 -0.169133
0.126065 0.252472 -0.335347
0.394795 -0.002020 -0.552227
0.834926 0.180857 -0.413694
0.801881 0.298136 -0.368795
0.122401 0.283152 0.305402
-0.653666 -0.123593 0.155742
0.611337 -0.060181 -0.547731
0.889297 0.403213 -0.043517
0.849847 0.295316 -0.326224
0.658087 -0.255351 0.475217
-0.512970 -0.199433 0.089732
-0.505403 0.199993 -0.304623
-0.678397 0.100856 -0.242892
0.687781 0.515828 0.121191
0.287805 -0.180541 0.488267
-0.434482 0.188133 -0.101908
0.716857 -0.081978 -0.512132
0.471166 0.094548 -0.553404
-0.035008 0.061532 0.161269
-0.312791 -0.032074 -0.441494
-0.692843 0.087747 -0.562717
0.855830 0.363462 0.239389
-0.646785 -0.139857 -0.162660
0.677191 0.147626 -0.512676
-0.627724 0.152543 0.071356
-0.703483 -0.003981 -0.149318
0.733126 0.032208 -0.510531
0.336643 -0.537905 0.000141
-0.627103 0.163657 -0.521320
0.619355 -0.528388 -0.150291
0.762288 0.324974 0.376330
0.194724 -0.333311 -0.334272
0.101657 -0.374210 -0.131594
0.232526 0.289845 0.400592
-0.595777 -0.176261 -0.053498
-0.288725 -0.030207 0.581851
0.212080 0.181202 0.447543
-0.314969 0.022203 -0.593471
0.731224 0.192747 0.474775
-0.423503 -0.182465 -0.233272
-0.381930 0.167113 0.351374
-0.641885 -0.123886 0.652951
-0.318308 -0.076031 -0.143885
-0.615468 -0.162116 0.072694
-0.688420 0.041858 0.310107
0.419062 0.439484 0.341071
-0.639041 0.145031 -0.055396
0.839880 -0.302888 0.329798
-0.590081 0.172487 0.481302
-0.013747 -0.220567 -0.058658
1.055262 0.071589 -0.050853
0.649289 -0.506722 -0.192283
0.163281 0.307655 0.328627
0.431615 0.414594 -0.373447
0.674417 0.517955 0.131635
0.932519 0.212643 -0.289374
0.630673 -0.290066 -0.463480
-0.367415 -0.156450 0.342594
-0.014760 0.205398 0.094131
-0.680389 0.057677 0.480658
0.236736 -0.192284 0.457980
0.969956 0.288663 -0.108821
0.045455 0.026151 -0.329745
0.059497 0.331280 0.110623
0.815595 0.219233 -0.410321
-0.444134 0.190398 -0.231405
0.233542 0.293259 0.398781
-0.546266 -0.191273 0.524528
0.394583 0.392293 0.388613
-0.013341 0.191440 0.125932
-0.654253 0.115499 0.390425
0.657955 0.533969 -0.077161
-0.551230 0.189265 0.578120
-0.549516 0.194185 -0.069977
0.622294 -0.515326 0.188441
0.789097 0.184961 -0.445240
0.979123 0.261240 0.134987
0.222809 0.425504 -0.241120
0.730851 0.505329 0.085890
0.560761 0.432487 -0.353964
0.913525 0.279688 -0.258454
-0.670398 -0.093824 0.270217
0.180981 0.457344 -0.071349
-0.516305 -0.199684 -0.218294
0.860064 -0.129798 0.411745
0.856785 0.352796 -0.253508
0.817713 -0.008180 0.463701
-0.564943 -0.165881 -0.648667
-0.321109 0.079761 -0.196550
0.846185 0.085440 -0.434607
0.871055 -0.114905 0.406377
0.331359 0.090666 -0.528552
0.964082 -0.300714 -0.101125
-0.335250 0.107554 -0.168476
0.701506 0.505279 0.141829
-0.640188 -0.146467 -0.170600
0.909157 -0.385031 -0.019194
0.080745 -0.053760 0.370624
-0.682414 0.053943 0.440232
1.034889 -0.166716 -0.046116
-0.458939 -0.196895 0.256074
0.179448 -0.299868 0.351215
-0.472049 -0.195467 -0.619822
-0.560663 -0.189756 0.109473
-0.425615 -0.188010 0.265165
0.522127 -0.531910 -0.180580
0.676204 -0.251983 -0.470621
0.421710 -0.173405 -0.528988
0.878805 0.015218 -0.415093
0.820949 -0.081193 0.454342
0.814084 0.397163 0.244213
0.199957 -0.360253 -0.310192
0.668477 -0.158856 -0.512257
0.656283 0.392858 0.370494
0.940782 0.330838 -0.110836
0.921712 -0.346488 0.134655
0.662942 0.018328 -0.537718
0.073221 -0.042242 -0.363459
0.039709 0.218843 -0.237206
0.712843 -0.352815 -0.382422
-0.371161 -0.146793 -0.302857
0.166144 0.069077 -0.446985
0.818347 0.209220 0.413411
-0.407293 0.181320 0.356710
0.135521 0.099388 -0.416298
0.573098 0.346305 0.436757
-0.061860 0.015223 -0.010420
0.946713 0.218886 -0.261846
0.707098 -0.392624 -0.344940
0.680333 -0.306699 -0.435250
0.302413 0.526156 -0.012101
-0.635168 0.142987 0.202685
-0.314680 0.020317 0.645870
-0.486381 -0.199674 0.094832
-0.302846 -0.068297 0.392844
-0.338297 -0.119952 0.069924
0.016837 -0.224955 0.178818
-0.677629 0.081100 0.225549
-0.016382 0.199567 -0.097724
-0.692075 -0.061140 -0.068795
0.358977 -0.538449 0.078818
0.566720 -0.553759 -0.070189
0.949411 0.196958 0.274343
-0.517623 0.068401 -0.649766
0.409606 -0.318826 -0.454099
-0.062078 -0.004063 0.008850
0.582392 -0.017615 -0.555813
0.454913 0.560351 0.000677
1.018698 -0.178983 0.122245
0.873947 0.409483 -0.092272
0.912124 0.306436 0.228644
0.067839 -0.242032 0.265866
0.033851 -0.312825 0.029538
0.585458 -0.165306 0.530469
0.257439 -0.281531 0.421819
0.182694 -0.434388 -0.163251
-0.544509 -0.195254 -0.051039
0.755449 -0.171335 0.470550
-0.419806 0.187816 0.648312
-0.568337 -0.185496 0.278007
0.719484 0.188445 -0.482019
1.037624 0.065808 0.150523
0.913899 0.367409 0.098616
-0.018402 -0.211093 0.052213
0.588220 -0.065788 -0.551286
-0.458652 -0.165650 -0.651136
0.412497 0.551123 -0.068071
0.073988 -0.044795 0.364052
-0.658437 0.119150 0.096455
0.611599 -0.024842 -0.550414
0.328271 0.397447 0.358569
-0.330635 -0.120425 0.415031
-0.638709 -0.153421 -0.446440
-0.338031 0.125526 0.267960
-0.648561 -0.143274 -0.386546
0.607850 -0.212864 -0.509003
0.502570 0.549744 0.117482
0.093483 -0.339127 -0.189115
0.650407 -0.540617 0.033736
-0.427125 -0.189039 0.325251
0.247509 -0.330503 -0.378211
-0.339869 -0.119661 -0.007160
-0.474991 -0.197015 -0.405880
0.395090 0.060009 0.549017
0.233385 0.206691 0.449692
-0.641215 0.138769 0.122640
0.580153 -0.336425 -0.443194
0.962161 0.044753 -0.316909
0.752458 -0.469076 0.179610
-0.701459 -0.003521 -0.061832
-0.345949 -0.107703 -0.624963
0.591237 0.553333 0.039052
0.767148 -0.315292 0.381117
-0.583253 -0.177339 0.397908
0.748211 0.441454 0.244001
0.563184 0.557409 -0.036471
0.006686 0.137809 0.231682
0.116161 -0.300454 -0.280039
-0.531939 -0.198480 -0.315270
0.838859 -0.075178 -0.442210
-0.477287 0.069272 0.649648
0.687679 -0.262150 0.460522
-0.563724 0.139410 0.651656
0.854220 -0.419769 -0.119788
-0.567577 0.184700 0.394530
0.614077 0.237516 0.496588
-0.690428 0.041416 0.227720
0.924713 -0.155099 0.334051
-0.305534 0.066540 0.250045
0.517253 0.142184 0.543611
0.899918 0.304575 -0.251649
-0.316291 0.051386 -0.414531
0.824592 -0.456233 -0.050185
0.584687 0.421605 0.362083
-0.348171 -0.126253 -0.143185
0.439786 -0.288442 0.478751
0.024379 -0.100580 -0.282303
0.252544 0.473440 0.175063
0.326854 -0.531789 0.056996
-0.361436 0.136338 -0.335951
-0.295105 0.019300 0.248594
0.272026 0.311420 -0.408745
0.928186 0.287790 0.223296
-0.328776 -0.053639 0.646198
0.621217 -0.392304 0.383968
0.022453 -0.016958 -0.296122
-0.701278 -0.014824 -0.076393
-0.674717 0.073117 0.494572
0.152843 -0.151647 -0.415346
0.172493 0.061264 -0.452784
0.936328 0.304008 -0.182275
-0.514723 -0.012639 -0.649833
1.058993 -0.059591 0.001491
0.380091 0.506888 -0.211456
0.610889 -0.333553 0.438717
-0.549818 -0.191768 0.300738
-0.496510 -0.199870 -0.159918
0.096707 -0.360200 -0.153747
0.755896 0.247547 -0.435046
0.157739 -0.151326 0.419505
0.900225 0.295908 -0.261315
0.435156 0.001689 -0.558408
0.784415 0.370065 0.313349
-0.001288 -0.182861 0.176917
-0.058626 0.060639 0.016946
-0.421317 0.185159 0.131621
1.041660 -0.139532 -0.056233
0.059185 -0.302650 -0.173528
0.631696 0.335183 -0.431666
-0.406500 0.029868 -0.652347
0.716484 -0.497675 -0.146564
-0.467079 -0.199121 0.610765
0.805729 0.467149 0.065792
-0.658132 0.078657 -0.646502
0.893082 -0.143769 0.375292
-0.474375 -0.198552 0.068555
0.722027 0.497878 0.137290
-0.373264 0.142048 -0.606754
0.253876 -0.459705 -0.210049
0.901692 -0.107825 0.378212
0.570732 -0.056866 -0.554788
0.981740 0.129197 -0.259348
-0.451212 -0.192346 -0.259464
0.424015 -0.239549 -0.502862
0.241411 0.262931 0.424295
0.572290 -0.137890 0.540174
-0.662951 -0.093353 0.601496
0.879686 0.210701 -0.357030
0.363953 0.424611 0.342380
1.033316 -0.123853 0.127520
0.155236 0.169626 -0.410356
0.837311 0.355799 -0.275055
0.930343 -0.014993 0.361396
0.610364 0.042669 -0.549569
0.939801 0.322062 -0.137397
0.238921 0.496882 0.031186
0.229800 -0.481702 0.104797
0.822831 0.383099 -0.255033
0.153151 -0.067184 0.437275
1.059121 0.038872 0.043581
0.594409 0.517616 -0.197959
0.064471 -0.188747 -0.301191
0.835846 0.352983 -0.280423
0.463247 -0.400247 -0.393038
0.156351 -0.389090 0.215735
0.339860 -0.293830 0.451715
0.714439 0.273628 0.441781
0.669134 0.223939 0.487106
0.966671 -0.112726 -0.292469
-0.346783 0.136158 0.287610
-0.482383 0.117102 -0.650585
0.817083 -0.435129 -0.161704
-0.687773 -0.099251 -0.606587
0.406939 -0.165227 -0.529213
-0.587396 -0.180742 -0.075036
-0.430385 -0.186547 -0.108312
0.503959 0.148958 0.542054
-0.060701 0.007035 0.039903
0.482590 0.156660 0.539612
-0.012899 0.228558 0.026889
0.284642 -0.135863 0.501188
0.042564 0.284740 -0.160319
0.311457 -0.514087 -0.127253
0.992091 0.179495 0.204095
0.687621 0.524761 0.073836
-0.506814 0.199923 -0.054396
-0.620817 0.012528 -0.647369
-0.591643 0.133281 -0.648047
-0.687371 0.001459 0.545762
0.352552 -0.470538 0.269962
0.498563 -0.138224 -0.544903
-0.042091 -0.040691 0.143208
0.544842 0.555626 0.072775
0.612434 -0.354836 -0.421280
0.614680 -0.512670 0.200112
-0.532104 0.195686 0.396963
0.771768 0.141128 -0.471436
0.435162 0.042612 -0.556783
0.719535 0.073858 -0.512227
0.378588 0.420399 0.352918
0.920577 -0.367462 -0.064142
-0.602965 -0.169692 0.125505
0.726181 0.107639 -0.503272
0.106537 -0.400189 0.032602
0.881008 -0.038941 -0.411514
-0.395597 -0.170177 -0.029930
0.262711 -0.507114 -0.050565
0.649956 -0.378782 -0.387382
-0.350233 0.047494 -0.653654
0.737758 0.488086 0.145842
0.373383 0.486745 0.251147
0.726460 -0.336731 -0.389044
0.714136 -0.424759 -0.299587
0.390200 0.230071 0.501037
0.769023 -0.055052 0.490533
0.707276 0.391054 -0.346612
-0.678052 -0.110594 -0.489316
0.685478 0.434568 0.304591
0.462753 -0.028731 -0.560191
0.364252 -0.121407 0.531846
-0.329937 0.093123 -0.300554
0.575853 -0.513942 0.214794
-0.347641 -0.115625 -0.468115
-0.351808 0.149230 0.645723
0.904988 -0.161984 -0.354645
0.754358 -0.390835 0.313969
0.175810 0.317018 -0.332306
0.682249 -0.485810 0.216335
0.216355 -0.440830 0.203079
-0.297355 -0.026880 0.189658
0.589122 -0.048883 0.552897
0.586255 -0.054530 -0.552823
0.763515 0.318465 -0.381008
-0.555446 0.190297 0.263036
0.795727 0.452473 -0.154405
0.253097 0.087655 -0.497376
0.989213 -0.141486 0.238074
0.073263 0.195714 -0.309222
0.740393 0.355838 0.362791
-0.428297 0.185431 -0.140042
-0.527455 -0.197872 0.071091
0.661793 0.087551 -0.531211
-0.541106 0.197806 -0.497470
-0.465349 -0.195123 -0.398502
-0.617432 -0.162235 -0.018896
-0.486282 0.199787 0.193404
-0.005664 -0.187534 0.158626
1.022000 -0.135865 0.158379
0.270178 0.278193 0.431066
0.614231 -0.306174 -0.457423
0.831708 -0.179702 0.416778
0.717097 -0.205729 0.475995
-0.548462 -0.191516 0.395500
0.288468 -0.018669 -0.520512
0.287877 0.477880 0.206548
0.205907 -0.466602 0.108716
1.029488 0.180223 0.056476
-0.342749 0.101567 -0.649436
0.812591 -0.154813 0.440848
0.041830 -0.242995 -0.216935
0.516577 -0.364527 -0.427635
0.805260 -0.090421 -0.463322
-0.694219 0.059218 -0.134985
0.571187 -0.287950 0.477540
1.030613 -0.067883 -0.172826
0.747118 -0.137757 0.485781
-0.341883 0.101154 -0.622621
0.646339 -0.542502 0.017419
-0.038511 0.137976 -0.083638
0.288114 -0.294767 -0.429236
-0.462994 0.197520 0.241098
0.750866 0.086200 0.495644
0.084288 0.368537 0.085968
0.796066 -0.474601 0.055906
0.623438 0.448388 0.315814
-0.705207 -0.004137 -0.223687
0.172116 -0.419226 0.181020
-0.058853 -0.057338 -0.020572
0.248274 -0.217832 -0.453002
-0.518715 0.199615 -0.271408
0.773825 -0.448556 -0.199610
0.262478 -0.447384 0.243840
-0.301884 -0.070420 0.468044
0.521548 0.375292 -0.417994
0.269057 -0.258923 -0.442325
0.390010 -0.121493 -0.537744
-0.306878 0.007809 -0.291823
-0.678878 0.092227 -0.058727
0.080884 0.159402 0.339057
0.129034 0.060239 0.418070
-0.307189 0.048734 -0.052230
0.675150 0.451390 -0.285651
1.021441 -0.179328 -0.109395
-0.559934 0.185854 0.601217
-0.679345 -0.102500 -0.325519
-0.415528 0.173604 -0.639713
0.718354 -0.122930 -0.503226
-0.467895 0.197870 0.128623
-0.445057 -0.189358 -0.406577
0.907911 -0.117515 0.368545
-0.008919 -0.022692 0.237726
-0.305711 -0.059162 0.137261
0.682052 -0.531778 -0.009798
-0.567154 -0.164829 -0.648615
0.591071 0.210620 0.513198
0.056954 -0.326580 -0.114380
0.151444 -0.366528 -0.245343
0.841073 0.430696 0.119153
-0.680186 -0.103173 -0.379071
0.053284 -0.309625 0.143543
0.548582 0.479326 0.289677
0.138570 0.198771 0.381950
0.167579 -0.316289 -0.324784
0.377084 0.157400 -0.525494
0.050859 -0.062222 0.332307
-0.398172 0.167840 -0.299916
-0.486847 0.200000 0.565285
0.091093 -0.020997 0.385203
0.712509 0.488736 0.178897
0.389827 -0.304368 0.459618
-0.495773 -0.199470 -0.444723
0.000685 -0.255331 -0.038960
-0.331609 -0.106178 -0.049213
0.675781 0.430901 0.315360
0.073555 -0.158988 -0.329992
-0.692271 -0.004866 0.332505
0.068353 -0.077689 0.351670
0.837480 0.225876 0.388734
0.311263 0.471036 -0.241931
0.550049 -0.448525 0.335182
1.016339 -0.208647 0.076733
-0.059979 -0.022167 -0.044259
0.835875 -0.342090 -0.293581
-0.339792 0.114661 -0.159467
0.419074 0.419660 0.365190
0.287155 0.246137 -0.458411
0.575816 -0.548471 -0.097254
0.546731 -0.542247 -0.140754
-0.686566 0.043865 0.370945
-0.660653 0.137108 -0.646034
0.551232 -0.521355 -0.203940
0.563003 -0.449586 0.331557
-0.621199 -0.033457 -0.647360
0.364289 -0.484070 0.251566
1.018501 0.120950 -0.180430
-0.638447 0.148725 -0.201953
-0.554004 -0.195739 -0.556553
0.448504 -0.187459 0.527479
-0.561900 0.194329 -0.628392
-0.381591 0.168555 0.461721
-0.002704 -0.080081 0.238543
0.163936 -0.207610 -0.399982
0.590183 0.433830 -0.345957
0.247535 -0.212013 -0.455345
0.414774 0.274552 0.483099
0.337932 -0.514314 0.158878
-0.420358 -0.185421 0.200735
-0.596275 0.179933 -0.384632
0.143429 0.000265 0.434608
-0.311007 -0.051893 -0.181238
0.512120 0.542498 0.146889
0.522495 0.420003 0.372986
-0.712455 -0.016417 -0.562901
0.995142 -0.128142 0.233326
0.768157 -0.140242 -0.473763
1.015444 -0.206378 -0.088049
0.989441 0.194291 0.196788
0.024162 0.221155 0.201733
0.333609 -0.414898 0.340882
0.690940 -0.007647 -0.528687
-0.042352 -0.145391 -0.027257
0.409385 0.034927 0.553711
0.551966 0.132633 -0.543815
0.532607 -0.068310 0.557044
0.660611 0.077906 0.533068
0.095627 -0.385159 0.064509
0.158361 0.247894 0.371293
0.897612 -0.022522 -0.396768
0.477234 0.183811 0.530775
-0.698111 0.002707 0.082868
0.867257 -0.092727 -0.415392
-0.579858 -0.188143 -0.516548
0.322173 -0.391567 0.362050
-0.313921 0.001584 -0.601333
-0.623028 0.038604 0.653033
0.483425 -0.559097 -0.056235
-0.530297 0.198627 -0.297021
0.129423 -0.132677 0.401369
0.102173 -0.350495 -0.186853
-0.313844 -0.045384 -0.373627
-0.296578 -0.028266 0.231439
0.262501 -0.245124 0.446694
-0.056048 -0.055744 -0.061075
-0.402782 -0.169307 -0.399387
0.852269 0.400624 -0.177295
-0.607071 -0.176154 -0.531015
-0.668047 0.046061 0.654079
0.904844 0.389975 0.006925
0.951609 -0.309633 0.127295
-0.574591 0.080296 -0.648443
-0.589180 0.177221 0.152521
0.233446 0.164076 -0.466963
-0.561605 0.184941 0.626430
0.598744 0.550967 -0.052073
0.581428 -0.547198 -0.099854
0.570892 -0.214390 -0.514819
0.470670 0.420535 -0.371909
0.578810 -0.551420 0.075845
0.235632 -0.489157 0.082838
-0.321688 -0.056690 -0.582767
-0.468903 -0.080384 0.649453
0.685143 0.229586 -0.478580
0.615520 0.512706 0.199537
-0.589948 0.184884 -0.587698
0.040962 0.098508 -0.309204
-0.352959 -0.142868 0.303210
-0.402706 0.177464 0.216878
0.015158 0.262919 0.108761
0.926368 0.010813 0.366224
-0.297427 0.059894 0.503700
0.064656 -0.182128 -0.305503
-0.619286 0.148266 0.644806
1.041346 -0.072978 -0.132836
-0.424874 -0.184715 -0.068013
-0.323599 0.080395 -0.291806
1.055112 -0.074265 0.048609
0.481035 -0.187942 -0.529476
0.990962 0.263696 0.073809
0.962301 0.174001 -0.268381
0.637795 -0.329098 0.434436
-0.552420 -0.188752 0.590831
-0.524847 -0.198483 -0.010788
0.040370 0.318393 -0.058251
0.952479 -0.164223 0.290380
0.481231 -0.488085 0.278294
0.908645 -0.187551 -0.337433
-0.021228 -0.106843 -0.181475
-0.695437 0.073407 -0.402303
1.004819 -0.032680 -0.245187
-0.005207 -0.196138 -0.149408
-0.589844 0.172216 0.511294
0.239213 0.042808 0.496170
0.823066 0.457888 -0.044651
0.631209 -0.293219 0.461339
-0.583193 0.177852 0.357805
1.010666 -0.136406 0.191418
-0.677559 -0.107552 -0.382866
0.309250 -0.514974 -0.120179
0.995656 -0.120409 0.236333
-0.531406 -0.197894 -0.105559
0.437484 -0.555308 0.061252
0.459142 0.529627 0.183993
0.081805 -0.356175 -0.119495
0.192404 -0.468743 -0.041131
-0.302969 -0.028150 -0.044392
-0.701796 -0.011065 -0.088178
0.200490 -0.443091 0.173180
0.800459 0.359769 0.310351
-0.557009 0.188396 0.436594
-0.510875 -0.199108 0.344171
0.391249 0.060863 0.548175
0.771350 -0.402489 0.283546
0.018989 -0.256430 -0.137476
-0.686077 -0.010184 0.590517
0.698898 0.485912 0.200887
-0.472933 0.196095 -0.528226
-0.054034 0.053844 -0.078576
0.445697 -0.554743 -0.073064
-0.300007 -0.027751 0.080666
0.931481 -0.295875 -0.205692
0.365303 0.536862 0.098297
0.546060 -0.545739 0.126785
-0.423294 -0.180626 -0.395645
-0.651196 0.124823 0.220093
0.745630 -0.122213 -0.490670
0.265841 0.436279 0.266190
-0.296738 0.058793 0.518629
-0.290949 0.021321 0.436388
1.005726 0.200826 0.141200
-0.651212 -0.114453 0.552996
0.986760 -0.065163 0.273579
-0.648669 -0.147190 -0.569340
0.758706 0.021356 0.498640
-0.691230 0.035912 0.239885
0.456178 -0.017971 0.560164
-0.561392 -0.022180 0.651601
0.240713 0.096646 -0.489343
0.970833 0.085273 -0.295080
0.422892 -0.286335 -0.477592
-0.576769 -0.183683 0.102310
-0.521170 -0.197371 0.480339
-0.412542 -0.176003 -0.325296
0.532777 -0.476990 -0.295691
0.769860 -0.312813 0.381248
0.710857 -0.187855 -0.486083
-0.496139 -0.199840 0.510191
0.868211 0.317935 0.281718
0.838451 -0.418394 0.162556
0.704298 -0.387975 0.351802
0.251650 -0.436933 -0.251871
0.262514 -0.288656 -0.419887
-0.627463 0.163245 -0.511669
-0.376770 0.152889 -0.247216
0.338301 0.262002 0.470356
0.958815 -0.321118 -0.048983
0.635369 -0.390475 0.381093
-0.414107 0.173405 -0.593517
-0.302740 0.058385 0.254852
-0.609248 0.174518 -0.496349
-0.612118 -0.151774 0.652780
-0.618918 -0.158400 0.138593
0.818874 -0.303902 -0.349270
0.329751 0.308954 0.437709
0.594037 -0.086828 -0.547398
-0.459195 0.192992 -0.503223
0.354130 0.120291 0.529414
0.016713 0.032408 -0.285324
-0.395271 -0.178007 0.582285
0.384291 -0.152535 -0.528556
0.408501 0.148745 -0.534350
1.059286 -0.004964 -0.056587
0.701235 0.300066 0.430688
0.968793 -0.179766 0.252872
0.643643 0.077085 -0.538007
0.683702 -0.058792 -0.528038
0.363960 0.174957 0.516633
0.529543 0.560197 0.036513
0.210122 -0.448680 -0.175168
-0.320494 -0.064935 -0.418023
0.089654 -0.283142 -0.259758
-0.297528 0.007723 0.110496
-0.523951 0.196263 0.625991
0.696740 0.525778 0.029628
0.992214 -0.150804 -0.225854
0.442619 0.534797 0.163484
0.479294 -0.558014 0.064955
0.191555 -0.108271 0.457347
0.394020 0.530402 0.153196
0.871933 0.384583 0.172595
0.622914 -0.251786 0.487364
0.527904 0.127146 0.546884
0.834222 -0.447071 -0.066711
0.648237 0.516919 -0.163851
0.622237 0.355215 -0.418219
-0.673726 0.079082 0.431520
-0.542596 -0.197602 -0.504008
0.708808 0.255367 -0.455208
0.750118 -0.106628 -0.492035
-0.487637 -0.199900 0.260413
-0.354587 -0.119545 -0.644454
-0.595710 0.179888 -0.356310
1.013685 0.228367 0.001667
-0.687857 -0.005630 0.521654
0.350963 0.512872 -0.175434
0.867899 -0.418338 -0.075305
0.015804 -0.284681 -0.023195
0.710444 -0.494163 0.165960
-0.684711 0.007644 0.654188
-0.625405 0.150576 0.269548
-0.615728 -0.168098 -0.315683
0.859527 -0.423525 0.085991
-0.685000 0.089599 -0.264488
-0.344481 -0.116694 -0.299280
0.775203 -0.479287 -0.102833
0.859339 0.410837 0.134594
0.289984 0.516292 0.073234
0.056109 0.001372 0.344944
0.476089 -0.510017 -0.235241
0.432229 0.439281 0.344190
-0.417435 0.021516 0.648257
-0.575963 0.107637 -0.648411
0.005860 0.216020 -0.158707
0.175912 0.420841 0.184084
0.164191 -0.407015 0.193901
0.131681 -0.241672 -0.349231
-0.296399 0.043016 0.354244
0.729033 0.148402 -0.491475
0.418000 -0.527668 -0.175696
0.439193 0.149037 0.538625
0.497292 0.526445 -0.197169
-0.337839 0.120975 0.122860
-0.299156 0.037283 0.184960
1.056089 0.081309 0.013433
0.549881 0.410707 -0.380603
-0.571956 -0.186012 0.066472
-0.569443 0.187320 0.028222
0.190899 0.183151 -0.432365
0.485465 -0.082993 0.555813
0.245158 0.381511 -0.324857
-0.040410 0.031420 -0.151646
0.447300 -0.264768 0.493100
0.559376 -0.247902 -0.501045
0.051513 -0.158161 0.299786
0.033849 -0.115351 0.292274
0.168884 0.072245 0.448520
0.405720 0.268253 0.484952
-0.324985 0.062325 -0.649080
-0.676756 -0.088087 0.122657
0.982801 -0.026047 0.286796
-0.332902 0.115666 0.167605
-0.306598 -0.024633 -0.220775
0.694891 -0.505934 -0.148577
-0.648506 0.146592 -0.534438
0.750233 -0.414784 -0.285244
-0.310877 0.012743 -0.453074
-0.370589 -0.083708 -0.653182
-0.409945 0.182209 0.325960
-0.301581 -0.003469 -0.069071
-0.330173 0.080742 -0.568220
-0.457166 -0.196593 0.261139
-0.382976 0.169091 0.438450
0.438997 0.552288 -0.085344
-0.515901 0.199275 0.048111
-0.534377 -0.002702 0.650974
-0.489960 0.199986 0.534182
-0.513690 0.197942 0.642820
0.922577 -0.266310 -0.257944
0.451209 -0.106480 0.549826
-0.696634 -0.071413 -0.420472
0.011736 -0.221077 -0.169559
0.411542 -0.502393 -0.236227
-0.054248 -0.073532 0.058557
0.436796 -0.509651 0.228666
0.599592 0.486122 0.264185
1.042668 0.011948 0.146271
0.168399 -0.434655 0.130932
0.368572 -0.482801 -0.256236
0.097268 -0.107360 0.377237
-0.516674 -0.199915 -0.466030
0.489938 -0.323952 -0.459326
0.268782 0.512216 0.014150
0.456529 -0.203354 -0.522288
-0.664059 0.103855 0.297385
0.047452 -0.222805 0.248163
0.347454 0.138222 0.523117
-0.434669 -0.184301 -0.532185
-0.001341 0.213597 0.138060
0.513626 -0.124048 -0.548136
0.259095 0.469719 0.193277
-0.039231 0.088513 0.131992
0.865579 0.003331 -0.427045
0.402010 0.197182 -0.517247
0.099354 -0.090750 0.383763
0.449416 0.300419 0.472458
0.402204 -0.523621 0.179677
-0.445419 -0.187541 -0.642484
0.155345 0.367265 0.249713
-0.623076 0.158390 -0.039825
0.167731 -0.330112 0.310887
0.429960 -0.510816 -0.224029
-0.480215 -0.120690 -0.650635
-0.355892 0.152235 0.618371
-0.477439 0.199706 0.504464
0.038069 0.298114 0.117365
-0.468634 -0.196502 -0.253368
-0.034751 -0.135913 0.107683
-0.645412 0.124388 0.483994
0.199346 0.459791 -0.119274
0.877741 0.412659 0.055235
1.031251 0.182832 0.019284
0.526826 -0.017528 0.561249
0.823255 0.455004 0.067118
0.306967 0.226872 -0.476754
-0.671432 -0.089001 0.332430
-0.390028 -0.168119 0.069303
-0.350811 -0.116039 -0.591920
0.100366 -0.393624 -0.037149
0.196726 0.413619 0.230154
-0.635069 -0.147286 0.011659
0.223752 0.469985 -0.137218
-0.473448 0.198396 0.054526
-0.592008 -0.178992 -0.118579
0.561355 -0.327404 -0.452845
0.855616 0.373212 -0.224226
0.988819 -0.231840 -0.152753
0.385581 0.022283 -0.549944
-0.483167 -0.199459 0.091686
0.918918 -0.247459 0.281601
0.691010 0.380886 0.366699
-0.317336 -0.013233 0.645932
0.936404 -0.177531 0.306694
0.175780 -0.414530 -0.197669
-0.579315 -0.176816 0.610366
0.510227 -0.560210 0.045681
-0.297333 0.062131 0.538565
0.748289 0.429468 -0.264455
0.621000 0.544082 -0.073217
-0.051495 0.061817 -0.089773
1.049766 -0.096811 0.066420
0.739332 -0.497325 -0.106841
0.622830 0.452816 0.309673
1.051161 -0.014582 0.109709
0.003517 0.217600 0.148937
0.775549 0.053581 -0.487061
-0.038707 -0.035774 0.156660
1.059571 0.047217 -0.026031
1.022967 -0.161678 0.128035
0.019238 0.276374 -0.092265
0.578433 0.449434 -0.328458
-0.689828 -0.089969 -0.480341
0.400067 0.547905 -0.076422
0.320582 -0.022983 0.532267
0.138243 0.319761 -0.287945
1.034838 0.080711 -0.153171
0.268611 0.273523 -0.433211
0.885774 0.021196 -0.408358
0.670768 0.496092 0.201887
-0.017213 -0.011938 0.219943
0.870180 0.081861 0.415081
0.319946 -0.513560 -0.140940
0.734029 -0.318509 -0.399762
0.996740 -0.140551 0.222534
0.685528 0.528363 -0.049379
-0.001220 0.151313 -0.204720
-0.298851 0.063654 0.494982
0.165979 0.400288 -0.210300
-0.633185 -0.144473 0.221908
-0.687578 0.078671 -0.157159
0.609061 -0.018188 0.551182
0.211016 -0.449028 -0.175754
0.584863 0.530480 -0.165578
0.260457 0.471459 -0.190715
0.594148 0.316829 0.454733
0.044053 -0.286359 -0.161671
1.059292 -0.027948 0.049382
-0.458675 -0.193391 -0.416625
0.339889 0.087513 -0.531726
0.716932 -0.457793 0.243707
0.190109 0.399875 0.245142
-0.524776 0.198509 -0.017064
-0.512838 0.199479 0.068581
0.888444 -0.371076 0.165653
0.385476 -0.533694 -0.134470
0.838801 0.321561 0.312792
-0.440097 0.138154 0.648784
0.006355 0.092306 -0.252629
0.379805 0.536057 -0.119261
1.060594 0.037254 -0.019332
0.157687 -0.422161 -0.143627
0.166553 -0.184114 0.413451
0.759020 -0.388429 -0.313143
0.308157 -0.206178 -0.486532
0.159519 -0.312683 0.319890
0.255606 -0.435597 0.257980
0.113398 0.337290 -0.229785
-0.708986 0.010010 -0.395294
-0.056126 0.001069 -0.082154
0.502234 0.265192 0.495677
-0.318949 0.060799 -0.410479
0.569467 0.379493 0.408884
0.525097 0.561418 -0.014405
0.487788 -0.557585 0.070543
0.931167 -0.080022 0.351737
0.877172 -0.110895 0.401834
-0.503406 0.199884 -0.439303
-0.560015 -0.190256 0.071781
0.932326 0.113255 -0.341020
0.730595 -0.387786 -0.335374
-0.305383 -0.001028 -0.233960
0.674343 0.095571 0.525831
0.082967 0.030396 -0.375748
-0.322424 -0.080235 -0.244230
-0.378283 -0.158763 0.002266
0.581423 -0.146180 -0.536683
-0.311025 -0.014232 -0.455092
-0.637239 0.154439 -0.435979
0.896429 -0.322887 -0.233699
1.058290 0.051390 -0.041206
0.099617 -0.262584 -0.294568
0.872460 -0.399024 -0.134462
-0.301925 0.080376 0.640846
0.640626 -0.529576 0.125701
0.683315 0.510641 0.147203
-0.578120 0.179730 0.414883
-0.364613 -0.134559 -0.543236
-0.669869 0.092409 0.325022
-0.394051 0.163277 -0.412577
0.862536 0.354786 -0.242326
0.045621 -0.296781 0.146587
0.067479 -0.028053 0.358002
-0.509832 0.117154 0.650404
0.000831 -0.157070 -0.205394
-0.341601 0.100661 -0.622890
0.868221 0.386603 -0.176007
0.487753 0.251793 0.502471
-0.702980 0.056914 -0.482030
1.024202 0.200262 -0.033685
-0.336996 -0.133687 0.611736
-0.551556 0.190296 0.430635
0.934704 0.276907 -0.224459
-0.493346 0.164898 0.650021
-0.318374 -0.098333 0.319526
-0.600979 0.178151 -0.432985
0.336524 -0.093784 -0.529629
-0.013739 -0.227783 -0.014634
0.103154 -0.384644 0.102901
0.920043 0.360288 0.098911
1.045515 0.132452 -0.029953
0.940480 -0.053652 0.345146
-0.351583 0.118961 -0.533798
0.071240 -0.363549 0.004850
-0.309929 -0.037017 -0.280938
0.488070 -0.107241 0.551710
-0.532604 -0.198454 -0.334724
0.686221 0.471552 0.242873
-0.341900 0.128333 0.200682
0.120137 0.122258 0.395960
-0.438404 0.193079 0.405654
-0.458047 -0.196961 0.310436
-0.309705 0.058831 -0.039092
0.817997 0.109640 0.450427
0.243153 0.222783 0.447688
-0.314795 0.042752 -0.440181
1.023218 -0.159075 0.130249
0.535331 -0.313248 0.465462
-0.393217 0.168029 -0.074024
0.687504 0.504805 -0.161373
0.473566 0.526330 0.195717
0.238874 0.379471 -0.322246
1.029131 0.095670 0.163995
-0.556068 0.108660 0.651478
0.814826 -0.418530 -0.204315
0.834012 0.448811 0.055059
0.380659 -0.081676 -0.543244
-0.681601 -0.059379 0.406049
0.768365 0.465200 0.166121
-0.656749 0.111271 0.408296
0.682574 0.496659 -0.189799
0.983541 0.269468 0.097991
0.204254 -0.034566 -0.476829
0.276351 0.418078 -0.302025
-0.496532 -0.048719 0.650095
-0.001741 0.216969 -0.131178
-0.498216 0.105269 0.650134
0.266268 0.496889 -0.120408
0.108888 0.191977 -0.355251
0.274283 -0.229026 0.461114
0.171600 -0.438647 0.125575
-0.311086 -0.054725 -0.150895
0.520437 0.561538 -0.016868
0.154405 -0.052543 0.440262
0.061415 -0.300121 0.183296
-0.052790 -0.096374 0.034098
0.185797 -0.447491 0.130597
0.917592 0.000683 0.376356
0.442784 -0.103069 -0.549664
-0.312290 -0.059015 -0.147937
0.626092 0.430977 0.338211
-0.399831 -0.168177 -0.348812
-0.431507 0.107550 0.648584
0.521236 -0.096873 -0.553346
-0.671348 0.074469 0.616467
0.447484 0.196127 0.524217
0.727245 0.063516 0.510248
0.230436 -0.341620 -0.355891
0.917135 -0.017173 -0.376471
0.606087 0.455306 -0.312200
0.727788 0.069712 -0.509195
0.363637 -0.175115 -0.516495
-0.025846 -0.156678 0.122331
-0.418458 -0.175879 -0.589877
0.204049 0.477225 0.026392
0.547278 0.413435 -0.377973
0.051757 -0.299038 -0.160254
-0.352720 0.130759 -0.176325
-0.528415 0.038938 -0.649515
-0.599026 -0.175774 -0.154423
0.764056 -0.027580 0.495521
0.123189 0.415648 -0.035744
0.849682 -0.164540 0.408260
0.890389 -0.030239 0.403372
0.554496 0.305199 0.468946
0.995806 0.217172 0.151788
0.226784 -0.490441 0.029119
0.380775 0.518925 0.180358
0.746099 0.501675 0.061515
-0.631580 -0.149412 0.060568
0.652257 -0.304437 -0.447396
-0.336053 -0.100050 -0.399319
0.124743 -0.012099 0.418405
0.848095 0.407677 -0.169283
-0.461708 0.194262 -0.399623
0.909886 -0.303499 0.236450
0.922402 -0.262834 -0.261768
0.507784 0.508824 0.238881
0.335362 -0.298482 -0.447024
0.047852 0.003564 0.334030
-0.658185 0.106604 0.477051
0.532974 0.008305 -0.561133
-0.322850 0.091328 -0.035674
0.067271 -0.357513 0.030947
-0.351305 0.139266 0.220055
0.424568 -0.298326 0.470466
0.589921 0.191401 0.520871
0.802294 -0.044189 -0.471903
-0.337560 0.104490 -0.350420
0.056905 0.293712 -0.182830
-0.405850 -0.181371 0.423540
-0.697535 0.055411 -0.228692
0.317221 -0.233775 0.477460
0.373160 0.546889 -0.029173
0.769979 0.285710 -0.401881
0.361500 0.534419 -0.106026
0.165739 0.183750 -0.412956
0.559013 -0.378787 -0.411175
0.384566 0.118462 0.537279
-0.500114 -0.156467 -0.650173
-0.642074 0.139308 0.063226
0.585497 -0.108241 0.544978
-0.710007 0.021188 -0.476923
-0.357759 0.129208 -0.450330
0.660654 0.009592 -0.538633
-0.589777 0.177110 -0.648090
-0.428891 0.188033 0.126798
1.051304 0.096404 0.052892
-0.370172 -0.114405 0.647160
0.965293 -0.099395 -0.299416
-0.027188 0.067779 0.183047
-0.652728 0.131309 -0.078794
0.198982 0.347756 -0.323235
0.750880 -0.082179 -0.496319
-0.040442 0.152496 -0.026354
0.561897 0.197148 0.522808
-0.299485 -0.067558 0.526062
-0.051568 -0.029140 -0.104647
0.181848 -0.092328 -0.454183
0.654974 0.402973 0.360032
0.630013 -0.072628 0.542078
0.979824 -0.274648 -0.101807
0.484169 -0.559792 0.049081
-0.589570 0.183260 -0.406802
-0.287522 -0.019506 0.575890
0.629345 -0.445959 -0.316887
0.974254 0.229454 -0.196116
0.821889 0.215524 -0.407386
0.538494 0.313914 0.464762
0.061780 0.055134 0.347780
0.917295 -0.365719 -0.090227
0.165044 -0.353961 0.280256
-0.600273 -0.177971 -0.387458
0.972811 0.303688 0.015828
0.354419 -0.166327 0.516884
0.812702 -0.432398 -0.176853
-0.713091 0.005172 -0.564098
0.191237 0.385120 0.269026
-0.623545 0.160338 -0.170671
0.241377 0.496311 0.053074
0.632103 0.059691 -0.543151
-0.428521 0.189357 0.305171
0.472821 0.092250 0.553876
-0.469903 -0.198614 0.283345
0.419719 0.520334 0.197064
0.328443 -0.469126 0.257907
-0.476902 -0.057689 0.649639
0.777291 -0.463099 0.157086
-0.540665 -0.197908 -0.508336
0.523041 -0.340493 -0.446722
0.208706 0.287238 0.385577
-0.521177 0.199105 -0.097855
0.336774 -0.274474 0.462653
0.395912 -0.424321 -0.353758
0.459631 0.556632 0.067511
-0.053107 -0.098606 -0.019394
-0.644339 -0.145123 -0.287633
-0.303337 0.034212 -0.019021
0.094930 -0.244347 0.303710
-0.623364 -0.161381 -0.223670
-0.348540 0.140835 0.405338
-0.038631 -0.148480 0.062112
0.170196 0.378248 0.253348
0.960453 0.267686 -0.179872
-0.575586 0.186478 -0.141003
0.030369 -0.239466 -0.195267
0.088660 -0.062166 -0.378103
0.666180 0.046415 0.535030
0.809214 0.096641 -0.459428
0.986262 0.277784 0.049115
0.484882 0.503528 0.249515
-0.583041 0.177362 0.405127
0.286044 0.440076 -0.276737
-0.376845 0.166431 0.525855
0.673191 0.012580 -0.534672
0.121999 -0.002954 0.416093
0.382010 -0.534170 -0.129491
-0.660282 -0.119447 0.007522
0.939752 0.350069 0.009861
-0.685891 0.035839 0.470298
0.745549 -0.042406 0.503919
0.787199 0.017280 0.482955
-0.029177 -0.178638 -0.063936
0.058655 0.335577 0.092899
0.811236 0.455642 -0.107471
-0.361736 -0.131803 -0.525276
-0.410057 0.176006 -0.218117
0.086241 -0.229721 -0.303412
-0.568538 0.191179 -0.420972
0.694132 -0.486265 0.204660
0.830251 -0.443474 0.101450
0.023172 0.287715 -0.076697
0.627116 -0.547349 0.016676
0.356579 0.543122 0.021825
0.668065 -0.399110 -0.358459
0.238164 -0.065040 -0.493192
-0.588946 -0.184101 -0.464071
0.868232 0.314438 -0.285589
0.259260 -0.463845 0.207169
0.346924 0.485634 0.238231
-0.306985 0.017260 -0.270879
0.201599 -0.178357 0.441783
0.065606 -0.318484 -0.160924
-0.393110 -0.140804 0.647692
-0.368884 -0.150792 -0.013045
0.163945 0.428321 0.140126
-0.556335 -0.021214 -0.648867
0.589133 -0.344055 -0.435556
0.951423 0.333590 -0.031025
1.043693 0.126049 0.067356
0.833505 0.202668 0.404632
-0.315340 0.087911 0.213867
0.098198 0.347871 -0.183217
-0.484139 -0.198101 -0.501317
-0.038105 -0.091942 0.134227
0.496805 0.462047 -0.320202
0.957169 -0.265141 -0.191634
0.671182 -0.527743 0.090613
1.061446 -0.019908 -0.020230
0.729104 0.476975 0.189823
-0.055488 0.013944 0.085238
0.837668 0.072120 -0.443628
-0.051381 0.069986 0.084307
0.396020 -0.181756 0.521709
-0.523993 0.196889 0.480127
0.341055 0.280866 0.460302
0.655901 -0.218031 -0.494150
-0.613873 -0.169180 -0.308904
-0.455562 0.191011 -0.639900
0.548395 -0.012982 -0.559925
-0.589451 0.171905 0.550779
0.166041 0.066215 -0.447341
-0.303330 0.017026 -0.114411
-0.488792 -0.200000 0.491095
0.701612 0.521669 0.056927
0.864012 0.428352 0.006091
-0.028144 0.190948 -0.025088
0.202718 -0.143794 0.454944
0.095556 -0.159633 -0.356328
0.858653 0.037402 0.431272
-0.446977 0.194579 0.291003
-0.679561 -0.064900 0.416167
0.844088 0.437574 -0.078484
1.045412 -0.033387 0.132053
0.433334 0.524717 0.190406
0.385618 0.319073 -0.448482
0.756289 -0.450215 0.218288
0.698961 0.501520 0.157857
0.108294 0.235072 0.327619
-0.344098 -0.111226 -0.446067
0.248813 0.027298 0.502182
-0.651672 0.141645 -0.449296
0.664853 -0.442180 0.305495
0.373631 0.480033 -0.263867
0.984220 -0.020286 0.284862
0.477979 0.559733 -0.047345
0.747283 0.345912 0.367727
-0.645925 0.149430 -0.557825
-0.307047 -0.007055 -0.300341
-0.460444 -0.195886 -0.034960
0.054744 -0.270708 0.210930
0.512901 0.555081 0.088011
0.346372 0.509516 -0.181160
0.076422 0.309891 -0.201436
1.060760 -0.027659 0.028458
0.577949 0.152135 -0.535542
1.025766 0.138285 -0.143088
0.797589 -0.337306 0.337183
0.716647 0.306354 -0.418615
0.803815 0.463883 0.092392
-0.335828 -0.093666 0.646362
0.602572 -0.504288 0.226274
-0.706015 0.000868 -0.256716
0.646384 -0.489031 0.235474
0.218006 -0.482737 0.058917
-0.665676 0.121896 -0.304493
-0.550513 0.192956 0.090900
0.522058 -0.091697 -0.554195
0.650923 -0.538584 0.056359
0.756505 0.498277 -0.044190
-0.305478 -0.076402 0.415036
-0.498578 0.199976 0.194243
0.243092 -0.039729 -0.498444
0.809516 0.458569 -0.099706
0.489982 0.394506 -0.400365
-0.661391 0.100533 0.497277
-0.542455 0.116544 0.651162
-0.675984 -0.107646 -0.317644
0.045334 -0.011974 -0.330398
0.705304 -0.331770 0.404730
0.811599 -0.161885 0.439006
0.206266 0.315133 -0.361163
0.159081 0.434707 -0.104070
0.827641 0.147719 0.432270
0.408968 0.552044 -0.054660
0.468387 0.560061 0.036875
-0.511810 -0.199998 -0.466589
0.559240 0.180837 0.528976
-0.632528 -0.138024 0.527358
0.802522 -0.333496 -0.336583
-0.432635 0.190442 0.269405
0.253734 0.054557 0.502398
0.688497 -0.211752 0.485445
0.748349 -0.499942 0.066393
-0.428060 0.183180 -0.359989
1.043580 0.141713 -0.021565
0.893117 0.341452 0.211888
-0.454926 0.167274 -0.651222
0.176093 0.074980 0.453309
0.518717 -0.296054 0.477523
-0.318431 0.045246 -0.572492
0.587025 -0.412320 -0.372083
0.805170 0.338592 -0.329020
0.330715 0.210816 0.492875
-0.450102 -0.190447 -0.481809
0.297516 0.473381 0.225694
-0.414024 0.183656 0.291312
-0.699540 -0.032635 -0.093293
-0.502001 -0.199934 0.134994
0.313005 0.080283 0.524037
0.917722 -0.120421 -0.356418
-0.558978 -0.192154 -0.150395
0.082746 -0.143356 -0.348389
-0.515876 -0.199774 -0.274010
0.062582 -0.058382 0.348259
-0.038915 0.142108 -0.073503
0.141569 0.416918 -0.117188
-0.330383 -0.094666 -0.284419
0.058415 0.148915 -0.314410
0.914695 0.346225 0.155511
-0.303736 -0.024598 -0.097779
0.729905 -0.196555 -0.473853
-0.294190 -0.014915 0.271760
0.300382 0.525443 0.009457
-0.371772 0.141348 -0.572753
-0.302576 0.058081 0.257920
0.172683 0.028062 0.456183
-0.337365 0.107813 -0.252431
-0.689837 -0.084759 -0.371772
0.086548 -0.067138 -0.374936
0.568211 -0.557689 -0.018893
0.687591 0.086135 0.522893
-0.313153 -0.054965 -0.236913
0.404478 0.194143 0.518856
0.625029 -0.247658 0.488938
-0.604751 -0.092659 -0.647742
-0.343337 0.108636 -0.486668
0.741796 0.055459 0.504466
-0.375199 0.160096 0.210831
-0.431601 -0.182759 -0.553516
-0.664144 0.108698 0.162907
0.075846 -0.073384 0.361574
0.441996 0.281366 0.483214
0.885357 -0.409157 0.010830
0.456445 0.482995 0.284334
-0.447807 0.166904 -0.651388
0.349722 -0.281131 -0.463043
0.614948 -0.067454 -0.546135
-0.059345 0.052405 -0.020351
-0.549833 0.193722 -0.004342
-0.502838 0.199704 -0.590825
0.293180 0.080732 -0.516464
0.947164 -0.337528 -0.046326
-0.343173 0.018486 0.646532
-0.443957 -0.043247 0.648873
0.272887 0.268353 0.438672
0.411100 -0.097170 0.546518
0.849723 -0.432674 -0.080712
0.578424 0.343457 -0.438080
-0.636613 -0.149057 -0.138942
0.624189 0.546708 -0.041409
-0.707999 0.005326 -0.345067
-0.474004 -0.198556 0.086228
0.393266 -0.017796 0.551650
-0.465636 -0.194763 -0.478595
-0.688451 -0.073953 -0.110903
0.738035 0.458260 -0.222181
-0.525790 0.076237 -0.649576
0.840918 -0.193525 0.402927
0.515343 0.499420 -0.257626
0.451362 0.056015 -0.557247
1.047197 -0.086728 0.095296
-0.691225 -0.090482 -0.551684
0.453312 -0.468169 0.307678
