ply
format ascii 1.0
element vertex 1670
property float x
property float y
property float z
end_header
-0.481722 -0.434513 -0.093047
-0.873225 -0.277141 0.026925
0.786861 -0.022627 0.323983
-0.522479 -0.473353 -0.276138
0.526303 -0.544042 -0.111357
-0.161977 -0.191404 -0.209435
-0.228793 0.086913 -0.246910
0.804318 -0.087878 -0.455253
-0.711096 -0.087751 0.256977
0.757795 -0.307523 -0.548365
-0.944333 0.105093 -0.210788
-0.457631 -0.212261 0.078822
-0.942923 -0.079985 -0.192953
1.030541 -0.248850 -0.397280
0.679836 -0.446461 -0.221725
0.727051 -0.137596 -0.513132
0.532262 0.104809 -0.475035
0.554564 -0.392182 -0.537007
-0.355363 0.086256 -0.039368
-0.720671 0.144462 0.179513
0.883039 -0.293715 -0.439228
-0.884264 -0.027414 -0.256948
1.068810 -0.279829 0.015157
0.782208 0.305653 -0.267783
0.445471 -0.428033 -0.559953
0.804068 0.009509 0.347412
-0.924372 0.078930 -0.227327
-0.392872 0.036332 0.033793
-0.750449 0.081917 -0.330546
-0.594924 0.297562 -0.012506
-0.926966 -0.239850 -0.035729
0.250732 0.269494 -0.420823
1.138886 -0.012723 -0.224834
0.887871 0.189466 0.159223
-0.238812 -0.082033 -0.398282
-0.139278 0.035581 -0.306920
-0.884731 0.239931 -0.118384
-0.178617 -0.334603 -0.123005
-0.189550 0.054121 -0.434585
0.498734 -0.067398 -0.575523
-0.420652 0.201902 -0.216232
0.341901 0.163128 0.011044
1.127763 -0.259820 -0.102739
0.489246 -0.348212 -0.677132
0.551655 0.326998 -0.232241
-0.840917 -0.009233 0.131824
1.181312 -0.214254 -0.320309
0.421814 -0.531495 -0.275264
0.124649 -0.111297 -0.096000
-0.614790 -0.394178 -0.059498
-0.717484 0.098358 -0.340467
-0.745784 -0.349590 -0.100442
0.711852 0.284979 0.088021
0.274531 -0.071675 0.080618
0.371200 -0.062034 0.126731
0.298631 -0.059327 -0.441030
0.847574 -0.338468 -0.346492
0.779414 0.347966 -0.021231
0.300000 -0.212375 0.021093
1.056874 -0.113305 -0.360105
0.414345 -0.582596 -0.115318
-0.815671 -0.159062 0.252764
0.749057 0.183502 -0.343064
0.810201 0.316395 -0.250452
0.204146 -0.242490 -0.190072
1.082037 0.014625 -0.285345
0.840965 -0.314014 0.201288
0.386298 -0.249267 -0.526195
0.528793 0.275563 -0.104088
0.893075 0.128197 0.174684
0.354861 -0.542707 -0.120764
-0.899622 0.254194 -0.178772
0.290813 -0.306389 -0.325100
0.218189 -0.190491 -0.002899
0.882043 -0.273673 -0.501097
0.657466 -0.413133 -0.349575
-0.195722 -0.155691 -0.282974
-0.401567 -0.134838 0.064503
0.238873 -0.242587 -0.254644
-0.736239 0.070316 0.214726
0.571501 -0.524499 -0.116048
-0.252752 -0.239253 -0.046950
0.209598 -0.169209 0.004081
0.708010 -0.173838 -0.539399
0.233429 -0.313972 -0.215222
0.881763 0.006131 0.245821
0.792847 0.374854 -0.086438
0.564736 -0.337035 0.071789
1.050858 -0.240731 -0.397373
0.813977 -0.032168 0.330790
-0.514308 -0.466411 -0.346844
-0.781228 -0.150069 0.250116
0.659174 -0.210369 0.175505
0.697383 -0.108209 -0.511099
1.126006 0.026342 -0.216901
0.103901 0.081364 -0.028268
0.527245 -0.111168 -0.585248
-0.414017 0.016303 -0.511266
0.995284 -0.454122 0.181628
-0.194696 0.019156 -0.414968
0.492677 0.220861 0.017979
-0.580735 -0.312489 0.060684
-0.628543 -0.024390 -0.431423
0.650101 -0.444772 0.054341
-0.431943 -0.524012 -0.316314
0.623178 0.058139 -0.459557
0.524122 0.125673 0.285969
0.455793 -0.429491 -0.543102
0.420531 -0.584047 -0.117724
-0.780404 -0.228909 -0.278775
0.827066 0.295952 0.193653
0.337288 0.019362 0.152975
-0.727581 -0.151949 0.230276
0.648253 -0.008395 0.271903
-0.473807 -0.127566 -0.548378
1.032150 -0.210081 0.054743
0.819018 0.060611 -0.374674
-0.774531 0.196519 -0.262432
0.489057 -0.518350 -0.051260
-0.446356 0.130792 0.032313
-0.354053 -0.138337 -0.513411
-0.460874 0.162446 0.019928
-0.617737 -0.128945 -0.453327
-0.941704 0.151175 -0.128821
-0.890810 -0.118618 0.146837
-0.275865 -0.208991 -0.352246
0.323775 0.241647 -0.495613
-0.893925 -0.169950 -0.192877
0.315487 0.159039 -0.008412
0.197799 0.226915 -0.355719
0.239822 -0.241261 -0.256954
-0.426128 -0.230036 0.055761
-0.738434 0.031264 -0.352721
1.014392 -0.164801 0.069202
0.827036 -0.393242 -0.205432
0.122737 -0.156222 -0.026521
-0.500479 -0.463657 -0.384789
0.791563 -0.360926 -0.346009
-0.934319 0.017940 -0.221948
0.916088 -0.080156 0.217366
-0.347131 -0.478213 -0.244602
0.304862 -0.190385 -0.398843
0.653397 0.205325 0.258702
0.694171 -0.367160 -0.444507
0.770741 0.297527 0.121006
0.785521 -0.158471 -0.498604
-0.610543 -0.402111 -0.076503
0.785048 0.346144 -0.008925
0.761738 -0.056907 -0.457942
0.803239 -0.396040 -0.225641
0.525290 0.306203 -0.201063
0.820009 -0.477292 0.110638
0.130997 0.124431 -0.125983
-0.754298 -0.178307 -0.333050
-0.796381 0.023975 0.167581
0.628066 -0.172827 -0.573038
-0.272389 0.117947 -0.335855
-0.667204 -0.267682 0.120487
0.862476 0.400489 -0.080128
0.973134 0.071647 -0.303327
0.309517 -0.047151 0.107832
0.306701 0.050797 -0.501235
-0.520685 -0.380793 -0.462413
-0.200925 -0.340447 -0.103036
0.353441 0.277919 -0.464792
-0.234351 -0.264495 -0.252950
-0.160047 -0.193516 -0.205175
-0.621531 0.138979 -0.354628
-0.531294 0.242994 0.007311
0.235767 0.246451 -0.369099
0.991134 -0.280186 0.159823
-0.535007 0.234037 -0.243370
-0.431375 -0.521975 -0.287178
0.181965 -0.152481 -0.185739
0.728410 -0.023774 -0.455598
0.108714 -0.079599 -0.079360
0.731005 0.305030 0.050405
-0.744936 -0.244427 -0.307665
-0.736934 0.145370 -0.308080
0.401169 0.268026 -0.235079
1.204276 -0.138507 -0.294879
0.221809 0.230668 -0.417100
1.063761 -0.090934 -0.052964
-0.903865 0.261227 -0.172778
0.092180 -0.025367 -0.070852
-0.110570 -0.052656 -0.244774
0.629381 0.080856 -0.445540
-0.243968 0.095519 -0.389742
0.665867 -0.453803 -0.216334
0.183877 0.165888 -0.319943
0.138711 -0.216862 -0.050040
0.996710 0.196349 -0.046102
0.510781 0.350095 -0.351419
-0.808847 -0.078863 -0.310745
0.404307 0.133032 0.177358
0.712858 0.283154 0.094758
0.841971 0.350205 0.047381
0.687099 0.058032 -0.432309
0.267140 -0.058393 -0.382823
-0.448166 0.215679 -0.207928
-0.189426 -0.287596 -0.173698
0.131012 0.029879 0.070134
0.260178 0.275135 -0.426515
0.255329 -0.055831 -0.361899
1.031234 0.134571 -0.247026
0.448990 0.060512 -0.532767
0.667757 0.186135 0.334102
0.578855 -0.255223 0.118756
0.392400 -0.064209 0.134697
0.394512 0.120373 0.203874
-0.994987 -0.181125 -0.039712
0.811125 -0.355216 -0.339718
0.765854 -0.504871 0.058760
-0.798923 -0.241340 0.162394
-0.605307 0.131704 0.197628
0.313985 -0.505142 -0.286652
0.339261 -0.210361 -0.454645
1.024140 -0.064179 0.009773
-0.957292 -0.218779 0.132058
-0.681888 0.326003 -0.111883
-1.022417 -0.156374 -0.036051
-0.655901 -0.195388 0.175715
-0.488883 -0.203194 0.098352
0.264319 0.040740 0.132506
0.506065 -0.223919 0.103330
-0.593063 0.034915 0.205958
1.031015 -0.126396 0.022514
-0.167877 0.018406 -0.377605
0.290285 -0.138680 -0.392938
0.057955 -0.012465 -0.012469
0.462942 0.117707 0.255852
0.380691 -0.338598 -0.479106
0.189784 0.073603 0.098729
-0.686093 -0.027276 -0.397186
0.667004 -0.389928 0.089003
1.031103 -0.337979 -0.126790
-0.818005 -0.250017 0.148108
0.470223 0.267841 -0.419956
0.925327 -0.186282 -0.452807
0.261141 -0.361967 -0.247086
0.866849 -0.416902 0.160862
1.038327 -0.247662 -0.391493
0.950079 -0.272921 -0.421384
0.760702 -0.242782 -0.551391
-0.370196 -0.355880 -0.033596
0.406421 0.145965 0.140755
0.815966 0.059301 -0.376633
-0.778800 0.095627 0.137031
1.037664 -0.389771 0.037901
-0.933541 0.115482 -0.090391
0.933060 0.443721 -0.125935
0.962126 0.026330 -0.330704
-0.142284 0.035302 -0.298627
-0.353552 0.000070 -0.542137
-0.159785 -0.026994 -0.177964
0.223701 -0.007845 -0.322745
-0.614149 0.252127 -0.233437
0.626825 -0.498511 -0.128046
-0.220512 -0.072576 -0.086443
0.259402 -0.398203 -0.089230
0.721532 0.008821 -0.442226
0.958993 0.209157 0.018816
1.135622 -0.259033 -0.239816
0.223323 -0.296039 -0.203777
0.587061 -0.433063 0.033274
-0.419103 0.178882 -0.305953
0.204838 -0.200531 -0.208578
0.267160 -0.361987 -0.067795
0.848466 -0.040085 0.326738
0.576191 0.297901 -0.114588
-0.162820 0.049973 -0.294133
-0.560976 -0.344218 -0.443527
0.412235 -0.455047 -0.490009
-0.283782 0.118239 -0.209505
0.499169 0.084570 -0.499297
0.763780 0.170933 0.397707
-0.505379 0.231444 -0.018295
-0.205977 0.006698 -0.420938
-0.337004 -0.456331 -0.125254
0.384793 0.287188 -0.312822
-0.718439 -0.183336 -0.364410
1.045957 0.075331 -0.088067
1.136249 -0.225035 -0.341981
0.288104 0.064323 -0.472185
-0.756001 0.215585 -0.255228
-0.417974 0.124895 -0.403088
0.353313 0.065053 0.182681
-0.139375 -0.034133 -0.196580
0.834459 0.124211 0.285377
1.017571 -0.348989 0.138871
-0.443879 0.086304 -0.444757
-0.389060 0.169927 -0.111255
0.317982 0.107067 -0.545315
0.377659 0.113525 0.204293
-0.503599 -0.118049 0.132497
-0.196391 -0.218247 -0.082864
-0.161384 -0.230320 -0.108214
-0.746103 0.292927 0.031352
1.001368 -0.420393 0.086856
0.340852 -0.250630 0.019400
0.847600 0.291502 0.192278
0.777873 0.048466 0.355717
-0.996268 -0.091693 -0.133030
1.154143 -0.042659 -0.283211
0.091193 -0.048799 -0.059400
0.897130 -0.046612 0.238873
-0.372160 -0.045669 -0.567194
-0.869382 -0.173978 -0.217815
0.821773 -0.232343 -0.520084
-0.415722 -0.237544 -0.522317
-0.756094 0.204510 -0.263380
-0.638125 -0.030599 0.233005
-0.600543 0.257710 -0.220968
0.335016 -0.106827 0.088863
0.903851 0.003003 -0.367266
0.925682 0.397680 0.003432
-0.531891 0.203602 -0.297760
0.516808 -0.473468 -0.016950
0.969096 -0.420996 0.049789
1.041453 0.250916 -0.184445
0.827654 0.257835 0.243205
0.740626 0.040829 0.335987
0.372936 -0.178261 0.069315
-0.378361 0.151530 -0.090836
0.213633 0.140296 -0.364804
-0.316514 0.143740 -0.222895
-0.449850 -0.218003 -0.575609
0.396238 0.292129 -0.313987
0.440779 -0.365027 -0.580057
-0.351942 -0.318461 -0.373087
-0.740213 -0.265563 0.130618
0.735181 0.218185 0.318336
-0.658636 0.334195 0.025064
0.341109 0.159050 0.022434
0.925681 0.281912 0.050940
-0.958336 -0.128287 0.061583
-0.535763 -0.457572 -0.320361
0.214899 0.211689 -0.396457
0.413961 0.286639 -0.276008
1.085061 -0.037349 -0.114584
0.650838 -0.342890 -0.570202
-0.643064 -0.290542 0.093264
-0.645666 -0.207461 -0.422206
-0.677096 0.055943 0.267718
0.207658 0.116850 -0.010648
0.292522 0.097301 0.150804
0.971512 -0.015504 -0.347628
1.092409 0.083410 -0.177810
-0.527004 -0.167754 0.131599
-0.520450 -0.403255 -0.442541
0.353104 0.144966 -0.531463
-0.495255 0.183706 -0.323720
-0.281464 0.113920 -0.200886
1.070558 -0.127259 -0.050704
0.469627 0.093876 0.246783
0.875901 -0.042618 0.276732
-0.386629 0.042124 0.024929
0.422435 -0.057176 -0.602997
0.915442 0.242249 -0.242603
-0.479528 0.184590 0.019376
1.052698 0.107729 -0.113904
0.524725 -0.055984 -0.558711
0.564355 0.212426 0.129898
-0.494139 0.128542 -0.393739
0.342788 0.154352 0.038679
-0.653262 -0.367248 -0.018974
-0.602285 -0.378518 -0.358908
0.964227 -0.288863 0.213446
0.910879 -0.102407 0.236189
0.836205 0.372486 -0.027015
-0.572056 0.015095 -0.447548
0.997766 -0.137204 0.088810
-0.492085 0.109689 -0.412893
0.272057 -0.394055 -0.254228
0.228656 0.121546 -0.385060
0.714475 -0.446355 -0.180300
0.620625 0.350790 -0.221146
0.878937 -0.293913 -0.443572
-0.582933 0.279266 -0.159827
0.284916 0.200516 -0.522142
0.801620 0.351735 -0.005880
0.170288 -0.256989 -0.121128
0.842448 0.127280 -0.331307
-0.648173 0.241076 0.181089
-0.359000 -0.139906 0.035092
-0.665389 0.178427 -0.310858
1.062908 -0.207650 -0.003482
0.878335 -0.138069 -0.448753
0.533420 0.061624 -0.496149
0.323742 -0.080426 -0.479091
0.317262 -0.505173 -0.118042
0.720851 0.286052 0.095617
-0.580420 -0.280686 -0.457579
-0.288168 0.104511 -0.405312
-0.609874 -0.348827 -0.381983
-0.646734 -0.263688 -0.400304
0.632712 -0.464060 0.037262
-0.991659 -0.107260 -0.000172
0.730930 0.220193 0.307132
0.276486 0.183392 -0.499431
0.609693 -0.482259 -0.197889
0.196659 -0.213321 -0.023518
0.414974 -0.035190 0.158859
1.001541 -0.099585 0.066350
-0.586410 -0.403124 -0.346929
0.919610 -0.076573 -0.400353
-0.435277 -0.167906 0.080044
0.933496 -0.265304 0.260955
-0.424638 -0.444643 -0.376539
-0.277346 -0.041869 -0.481786
0.463874 -0.399001 -0.002297
1.017524 -0.198825 0.077336
0.715469 0.369088 -0.162234
0.335373 -0.519851 -0.320410
0.799740 0.007406 0.344511
0.617976 -0.189204 0.168499
-0.717036 -0.315293 0.059336
-0.570311 -0.120386 0.170978
1.181200 -0.105871 -0.303285
0.778581 0.045506 0.354538
0.381854 -0.155147 -0.556549
0.608693 0.104120 0.311306
1.036942 -0.131181 -0.377564
-0.426907 -0.087499 0.085250
0.787898 0.261561 -0.287416
0.291969 -0.609028 -0.197037
0.718967 0.234654 0.248940
-0.497941 -0.357970 0.000881
0.661917 0.052007 0.307963
0.334510 0.162543 0.003907
0.629117 -0.027988 -0.500116
0.887783 0.254461 0.132715
-0.563755 -0.438828 -0.143374
-0.852538 -0.256103 0.126962
0.907435 -0.390848 0.191233
0.280484 0.245507 -0.512171
0.185794 0.107360 -0.299492
0.217811 -0.070653 -0.286011
1.035800 -0.375674 0.115904
0.285401 -0.015287 0.113476
-0.465989 -0.052414 -0.528565
0.381347 -0.350036 -0.013044
1.008968 -0.076437 -0.362119
-0.806746 0.063293 -0.304374
1.057851 -0.346800 0.063029
-0.399442 -0.447671 -0.339665
0.927088 0.117054 -0.300273
-0.680001 -0.383171 -0.186664
-0.433470 -0.488182 -0.355435
1.178531 -0.174945 -0.232025
-0.465445 0.185313 -0.002728
-0.740206 -0.148448 0.237205
0.848254 -0.475251 0.068399
0.524004 0.159508 0.241463
0.909128 -0.365199 0.204791
0.470109 -0.468439 -0.407943
0.672841 -0.527540 0.015287
0.744827 -0.074158 0.280244
0.621780 0.367474 -0.305371
0.167283 0.107428 -0.265080
0.378449 0.167330 0.042368
1.053286 -0.265287 0.038073
0.972004 -0.039106 0.096486
-0.838640 -0.282163 -0.121926
0.125020 -0.177792 -0.069404
0.787499 -0.482053 0.015771
0.904084 0.293589 0.086329
0.520086 -0.474648 -0.328918
-0.593380 0.292247 0.009107
0.259014 0.187230 -0.161810
-0.503880 -0.313782 0.040758
-0.836511 -0.276660 0.087618
-0.641192 -0.072773 -0.433059
-0.716695 -0.210941 -0.355714
-0.513979 -0.253559 0.085089
-0.469208 -0.325053 -0.528923
0.960848 0.179363 -0.254676
0.470765 -0.303074 -0.661270
0.669194 0.370853 -0.283428
0.817146 0.241493 0.269461
1.157682 -0.265699 -0.193051
0.995024 -0.331063 0.173464
0.743579 -0.083674 -0.479091
0.792066 -0.292357 -0.552974
0.929124 -0.299149 -0.367238
-0.433334 -0.276510 -0.516748
-0.745608 0.092801 0.184720
-1.003734 -0.183489 0.041423
0.449561 0.272158 -0.426621
0.585046 0.171352 0.279172
1.151341 -0.111442 -0.207496
0.725114 -0.078240 -0.484259
-0.780588 -0.140647 0.256709
0.401645 -0.528535 -0.308531
-0.425839 -0.156455 -0.583830
-0.574587 -0.017242 0.192415
-0.348868 0.130520 -0.103855
0.268029 -0.361525 -0.260084
-0.764760 -0.333662 -0.138480
0.983132 -0.040271 -0.355057
1.135024 0.041908 -0.249062
-0.745815 -0.205736 0.194979
-0.215707 -0.110637 -0.078732
0.770003 -0.171287 0.242397
0.047065 -0.006434 0.005317
0.219806 -0.023617 -0.309026
0.606545 0.236998 -0.377164
0.599078 0.351036 -0.247858
-0.632727 0.314797 0.034965
0.082662 0.081811 -0.097126
0.476726 -0.292757 -0.676594
-0.638542 -0.237276 0.140170
1.136852 -0.141516 -0.168198
0.287558 0.067011 -0.472273
0.735129 -0.131610 -0.506687
-0.491779 -0.487029 -0.329107
0.869449 -0.477525 0.100825
0.913680 0.222922 0.097475
0.980878 0.309714 -0.063166
0.307469 -0.379473 -0.059328
-0.763869 0.288147 0.010627
-0.204769 -0.285297 -0.085561
0.969050 -0.011505 0.090657
0.228440 -0.280718 -0.219585
0.594386 0.147527 0.326915
-0.836284 0.322297 -0.114766
0.062535 0.050959 -0.047017
-0.412921 -0.287693 0.023582
-0.664243 0.338516 -0.026224
1.074009 -0.333758 0.027614
0.854224 -0.095268 0.316406
-0.543504 -0.308109 0.056348
0.298789 -0.551328 -0.239426
0.782113 -0.385364 -0.283417
-0.957280 -0.214227 -0.040646
-0.509861 -0.344115 0.016444
-0.356447 0.105703 -0.057698
-0.388834 -0.043992 -0.559449
-0.176204 -0.298563 -0.147192
-0.986547 0.076357 -0.184472
-0.864524 -0.046935 -0.270290
-0.557491 -0.387983 -0.031135
0.279810 -0.533337 -0.148131
0.143407 -0.078057 -0.144540
0.427965 0.061285 0.212681
-0.342571 -0.337530 -0.033419
0.237343 0.278667 -0.464725
-0.210086 -0.054067 -0.380213
-0.822051 -0.071660 0.205334
0.728051 -0.498068 0.060966
0.194875 -0.307299 -0.146228
0.548723 0.217434 0.095898
-0.880822 -0.268769 0.060780
0.965411 -0.316911 0.222753
0.187766 0.169955 -0.195379
-0.226885 0.066735 -0.200208
1.090521 -0.035918 -0.125330
0.956042 -0.096545 -0.394786
0.772499 -0.249526 -0.549727
0.566790 0.277291 -0.063527
0.634697 0.254749 0.086549
-0.186566 -0.012039 -0.380014
0.417038 -0.446764 -0.502344
0.702630 0.171309 -0.368994
-0.638408 -0.406838 -0.213198
0.618574 -0.105104 0.210836
-0.665222 -0.276623 0.111082
-0.599940 0.152126 -0.350111
0.334770 -0.202752 -0.449412
1.204715 -0.222767 -0.266333
0.658353 0.312222 -0.317396
1.060611 0.129253 -0.137460
0.306288 -0.514191 -0.127242
0.365743 -0.524771 -0.107142
-0.758458 -0.337760 -0.033532
-0.943980 -0.211192 -0.073635
0.977474 0.173584 -0.000971
0.791032 0.341832 -0.245911
-0.976972 -0.121893 0.031139
0.340608 -0.200694 -0.461118
0.691699 -0.483024 0.052967
-0.619714 -0.044625 -0.441615
-0.594442 -0.212345 -0.464762
-0.806456 -0.314196 -0.020969
0.298440 0.268569 -0.360526
0.599515 -0.268428 0.120972
-0.979004 -0.079560 -0.003947
0.240708 -0.016607 0.093726
1.030865 -0.296558 -0.252470
1.086451 -0.285509 -0.015335
0.421615 -0.130889 0.113810
-0.305779 0.008455 -0.039847
0.903505 -0.356616 -0.224147
0.422932 -0.247935 -0.594901
1.035090 0.258275 -0.142923
0.208284 -0.299734 -0.174281
0.941011 -0.309357 -0.322011
-0.876671 -0.232994 0.163970
1.071880 -0.337022 0.032914
0.612109 0.143402 -0.421621
-0.835113 -0.040364 0.163538
1.076208 -0.361431 -0.001439
-0.573665 -0.066078 0.186082
0.119370 -0.017761 -0.124563
0.923878 0.376920 0.015306
0.550819 -0.048181 0.210380
0.764684 -0.296587 0.177428
-0.546717 -0.443138 -0.338465
0.983567 -0.317591 -0.245797
-0.763514 -0.339563 -0.094553
-0.817102 0.332559 -0.130645
1.102560 -0.198717 -0.080923
-0.160108 -0.037828 -0.324043
0.232274 0.128374 -0.015867
0.484474 0.221026 0.007596
-1.015852 -0.086002 -0.049580
0.984736 0.232206 -0.038537
0.427204 0.095974 -0.524328
-0.555986 0.279037 -0.088497
1.026902 -0.431776 0.152087
0.140376 -0.137992 -0.114307
0.587949 -0.033914 -0.520664
-0.686447 0.040079 -0.379402
0.871946 0.408916 -0.094225
0.609930 -0.073222 0.223097
0.807584 0.317368 -0.251083
-0.597626 0.287489 -0.148949
0.176940 0.144201 -0.298136
0.998232 -0.053138 0.053445
-0.561935 -0.185044 -0.493631
-0.848247 0.134406 0.012177
0.370014 0.254864 -0.232782
-0.622808 0.314085 -0.071067
-0.966560 -0.077384 0.011463
-0.402171 -0.104563 -0.581761
0.585259 -0.331246 0.083451
0.392661 -0.212108 -0.553282
0.056096 0.039360 0.041277
0.934690 -0.383606 -0.104861
0.891722 -0.235632 -0.491853
0.981257 -0.298557 0.185739
0.826343 -0.369204 -0.279033
-1.012493 -0.123714 -0.089615
-0.242117 -0.196082 -0.315800
0.859962 -0.201996 0.265453
-0.855593 0.161219 -0.018357
0.427349 0.273186 -0.219147
0.200609 -0.083262 -0.248833
0.529325 -0.467642 -0.338994
0.095894 -0.113561 -0.016639
0.232123 0.178333 -0.167286
-0.335521 -0.494349 -0.216364
-0.705278 -0.029675 0.273851
1.090468 -0.316466 -0.010105
-0.905813 0.243650 -0.150141
-0.367255 -0.049282 0.036633
-0.440446 0.176767 -0.322104
-0.298237 -0.086164 -0.476649
-0.973253 0.118156 -0.190150
-0.709225 0.207745 0.146931
0.639762 -0.504835 -0.093309
0.627941 0.329740 -0.321620
0.856917 0.380574 -0.026541
0.619213 -0.350328 -0.585799
-0.543903 -0.141959 -0.505622
0.627999 0.295203 -0.043985
0.836994 0.239930 -0.277270
0.999667 -0.429504 0.112387
0.352813 -0.069326 -0.537735
-0.366222 0.168638 -0.276682
-0.441047 -0.023095 0.092700
-0.708206 0.003234 -0.377412
0.457697 0.070959 0.230220
-0.757377 0.171665 0.108404
0.147209 -0.043028 -0.165989
0.737468 0.090650 0.359567
0.939625 0.167737 -0.269558
-0.283661 0.112392 -0.379373
0.487292 -0.042489 0.186095
-0.217173 -0.335428 -0.175267
-0.516920 0.186445 -0.321842
-0.937498 -0.223706 -0.058903
1.129969 -0.270653 -0.211453
-0.346681 -0.468606 -0.251315
-0.338761 -0.449533 -0.118124
0.709833 0.296791 0.049829
-0.601927 0.270874 0.081304
0.142126 -0.128831 -0.121321
0.350747 -0.006523 -0.559664
0.822675 0.168304 0.289209
0.956673 0.395785 -0.053451
0.887124 -0.114049 0.285164
-0.738353 0.161391 0.142340
0.372269 -0.099408 -0.561590
0.770675 0.096914 -0.377156
0.862720 0.144310 -0.314127
0.642043 0.249888 -0.355553
1.153563 -0.224449 -0.322890
1.099237 -0.150121 -0.094681
-0.684357 -0.381329 -0.103221
-0.335808 -0.081303 -0.531898
1.061983 -0.369655 0.006312
0.178504 0.184054 -0.249222
1.183151 -0.074144 -0.286576
-0.566286 0.262608 -0.193771
0.314652 -0.278213 -0.381015
-0.359850 -0.290589 -0.405201
1.143357 -0.041120 -0.221499
0.303616 -0.331025 -0.338811
-0.541339 0.009797 0.168035
0.337015 -0.206688 0.039749
0.556992 0.269843 -0.052789
-0.633246 -0.305066 0.076329
-0.287583 0.036655 -0.518356
0.328614 -0.502627 -0.314902
0.964461 0.082458 0.060636
0.590846 0.308889 -0.130190
0.780704 0.392017 -0.153029
-0.263288 0.063554 -0.478409
-0.991324 0.031770 -0.105787
0.450224 -0.487932 -0.372900
-0.653757 0.333356 -0.020024
-1.035919 -0.040609 -0.111741
-0.600995 -0.190234 -0.462822
-0.296687 -0.428155 -0.109609
-0.925288 -0.150448 0.123826
1.033786 -0.361403 -0.052649
-0.627518 0.119148 0.221277
1.035974 0.047150 -0.057929
-0.944155 0.118571 -0.107308
0.755936 0.256763 0.226565
0.574174 -0.428738 -0.402712
1.086215 -0.200643 -0.049720
0.136380 0.050775 -0.184334
0.689932 -0.326853 -0.571635
0.286968 -0.598791 -0.177825
0.275621 -0.430648 -0.245844
0.186869 -0.162976 -0.190557
1.031328 -0.202430 -0.415612
-0.917671 -0.006579 0.024508
-0.859304 0.157578 -0.020670
0.884734 0.279934 -0.236862
-0.863507 0.086471 -0.264890
0.563392 -0.336674 -0.682646
0.318341 -0.151799 -0.439755
0.450660 -0.427853 -0.554245
-0.417838 -0.283016 -0.490526
1.087291 -0.117365 -0.085898
1.160157 -0.148324 -0.208763
0.898591 0.310378 0.089660
0.974756 0.022123 -0.327414
0.473173 -0.400347 -0.610381
-0.642277 0.208324 -0.288468
0.317458 -0.236630 -0.403301
0.709366 -0.061373 -0.482545
0.308991 -0.524839 -0.269278
-0.589350 0.172402 0.163355
0.646417 -0.196348 -0.576970
0.728058 0.214948 0.319551
-0.486744 -0.481295 -0.198194
0.148518 -0.001851 -0.185322
0.509077 0.154755 0.237862
0.730525 -0.169443 -0.527584
0.581999 -0.159363 -0.585977
-0.960134 0.135732 -0.195391
0.547765 0.180992 -0.430294
0.540390 -0.225822 0.117038
0.645849 -0.067684 0.241209
-0.332231 -0.250245 -0.398094
0.757706 -0.043893 0.300889
-0.211549 -0.015200 -0.411874
-0.752068 -0.123118 -0.350136
0.258956 -0.275442 -0.027995
-0.398372 -0.484533 -0.310072
-0.370206 0.096728 -0.030589
-0.758704 0.354799 -0.088014
0.436636 -0.086309 0.142532
0.339746 -0.565121 -0.272374
0.233575 -0.257534 -0.238653
0.525485 -0.433905 -0.445749
0.390096 -0.358133 -0.488587
0.639868 0.313845 -0.324480
-0.451594 -0.068559 0.103346
-0.618199 -0.244463 0.128491
1.080722 -0.279364 -0.244434
0.626112 -0.166779 0.183195
0.504913 -0.061346 -0.569856
0.802825 0.413126 -0.190270
-0.590994 0.169067 0.166973
0.824220 -0.472998 0.032612
-0.182340 0.026686 -0.207393
-1.010627 -0.089098 -0.119125
-0.408399 0.090971 -0.445289
0.444856 -0.267529 0.055366
-0.729587 -0.350818 -0.174938
-0.606242 -0.412798 -0.287429
0.758080 0.225461 0.323907
0.461268 -0.463186 -0.434500
-0.488961 -0.198923 -0.547168
-0.279312 -0.267008 -0.312711
1.002281 0.335417 -0.113536
0.408178 0.153491 0.120090
-0.722250 -0.253949 0.142993
0.405025 -0.202982 0.070651
0.496564 -0.333025 -0.696980
-0.523657 -0.165767 0.130545
0.807886 0.149057 0.324622
-0.410353 -0.361756 -0.024307
0.564501 -0.025205 0.227720
0.978716 -0.161993 0.134427
-0.376927 0.007813 0.030041
-0.824435 -0.299601 -0.099144
-0.591617 -0.018206 -0.450401
0.396567 0.061272 0.199264
0.664955 0.245297 0.151630
-0.686499 -0.100479 0.239449
-0.256955 0.102923 -0.379550
0.658621 -0.353053 -0.530056
0.230504 -0.073694 -0.308381
0.334462 0.248011 -0.254881
1.135811 -0.234696 -0.128024
0.620225 -0.172348 -0.576148
0.521093 -0.490068 -0.281026
-0.440874 0.135930 -0.388697
-0.562501 0.128744 0.158297
-0.631204 0.053775 0.233882
0.276440 -0.450153 -0.107947
-0.545411 -0.415031 -0.393697
0.997145 -0.388338 -0.015270
0.355914 -0.526884 -0.355742
0.890264 -0.396035 -0.120777
0.504613 -0.404943 -0.558577
0.980019 0.340014 -0.166103
-0.590164 -0.416401 -0.099449
-0.562058 -0.329935 -0.451546
-0.323759 -0.369208 -0.059489
0.718592 -0.509304 0.015220
-0.480264 -0.193352 -0.553132
-0.974791 0.089730 -0.192155
0.730593 -0.407659 -0.278015
0.748772 -0.315576 -0.534860
-0.332684 -0.436069 -0.106683
1.114207 -0.323524 -0.051377
-0.212118 -0.367569 -0.143810
0.886011 -0.361070 -0.231748
0.953068 -0.343871 -0.202998
-0.729905 -0.197434 -0.348654
-0.393264 0.019532 0.040990
-0.906034 0.054131 -0.005848
-0.352349 0.101773 -0.431670
0.701317 0.271031 0.117548
-0.115080 -0.128370 -0.164416
-0.368194 0.144431 -0.357909
0.382420 0.131041 0.157009
0.465835 0.039384 0.217897
1.101634 0.029316 -0.269624
1.069298 0.052745 -0.122226
-0.606458 0.267603 -0.204088
0.730250 -0.293804 -0.589928
0.889935 -0.349190 -0.262982
0.657371 -0.291876 -0.620091
0.349749 -0.073009 -0.530522
0.278974 -0.552139 -0.157896
0.554142 0.316020 -0.196010
0.584882 -0.316867 -0.663557
-0.198988 -0.081926 -0.343733
0.433663 -0.377470 -0.561711
0.730694 -0.136071 0.243229
0.995649 -0.377340 -0.050366
0.242757 0.158695 -0.426542
-0.252073 -0.044093 -0.067917
0.343295 0.137697 -0.539289
0.517011 0.286166 -0.150386
-0.649480 0.314446 -0.117146
0.388938 -0.476332 -0.437929
-0.567364 -0.086369 -0.482439
0.981041 -0.293804 0.184191
0.567334 0.196890 0.180519
0.659661 0.333296 -0.121142
0.864845 -0.361335 -0.256454
0.799181 -0.094974 0.293044
0.179370 -0.150374 0.000595
0.161876 0.180898 -0.259709
0.280685 -0.556793 -0.159494
0.809844 -0.088477 0.300849
0.748858 -0.135480 0.251282
-0.279700 0.112521 -0.200866
-0.749265 -0.338979 -0.164141
0.830680 0.280875 -0.259478
0.943913 0.428592 -0.067057
-0.678679 0.334087 -0.084741
0.868058 0.250478 -0.258724
0.819982 -0.478100 0.110222
-0.680232 0.339384 -0.066693
1.107115 -0.320573 -0.087878
0.462850 0.079340 -0.517426
0.718804 -0.380468 -0.374536
0.226017 0.196365 -0.229231
0.866624 0.322165 0.144300
-0.767958 -0.273017 -0.254258
0.534353 -0.181730 -0.617519
0.319543 0.096422 -0.543850
0.467213 -0.236765 -0.673733
-0.217067 -0.023297 -0.115017
-0.504711 -0.156393 -0.533461
-0.268254 -0.073972 -0.444820
0.940409 0.103981 -0.301125
0.684145 0.121754 0.352356
-0.480153 0.197022 0.002638
0.681209 0.359694 -0.283881
-0.475460 -0.491279 -0.363679
-0.358938 -0.445848 -0.111027
1.002502 0.051185 0.002692
0.974659 0.327064 -0.174872
0.718261 0.225733 0.275094
0.949851 -0.216465 0.210484
0.612592 0.231179 -0.377493
-0.466951 0.149361 -0.371124
0.298171 0.240749 -0.506998
0.742613 0.213466 0.341578
0.857394 -0.448255 -0.002309
0.826214 -0.486899 0.077097
0.379660 -0.197791 -0.534968
0.895655 -0.397413 -0.110110
-0.473578 -0.116817 0.113963
-0.207971 -0.241066 -0.076466
-0.626488 -0.355671 0.009866
0.481874 -0.458079 -0.425128
0.887189 -0.223870 -0.487904
-0.449111 -0.031199 -0.526655
0.263334 -0.048573 -0.379772
0.699917 -0.393937 -0.356526
0.822596 -0.197723 0.251632
0.610001 0.175294 -0.406563
-0.407231 -0.519742 -0.237431
0.897770 0.051054 -0.345820
-0.544369 -0.095528 -0.498476
0.251443 -0.216740 -0.288639
-0.719993 0.335838 -0.110854
0.951264 -0.266321 -0.439933
-0.445750 -0.499920 -0.214201
-0.356060 -0.216143 -0.456802
0.763768 0.090977 0.370964
-0.653362 0.142386 0.237724
0.690485 -0.122115 -0.521003
0.400824 0.220110 -0.090442
0.428534 -0.505084 -0.347117
-0.628646 -0.384060 -0.043816
-0.431202 -0.369964 -0.442521
0.560322 -0.326097 0.075376
0.395571 -0.394244 -0.483955
-0.894867 0.055576 0.008368
0.356722 -0.402588 -0.049858
-0.850133 0.273910 -0.181997
0.894455 -0.178118 0.292134
-0.795329 0.280657 -0.189634
-0.159360 -0.047591 -0.162361
1.064516 -0.145365 -0.372884
0.177952 -0.256586 -0.053157
1.010560 -0.245835 -0.430489
0.572001 0.334321 -0.229891
-0.214052 -0.328937 -0.175938
0.305823 0.044259 -0.496920
0.770250 -0.343798 -0.423544
0.203464 0.086717 0.075518
1.030023 -0.364693 0.122147
0.203233 0.174971 -0.191926
0.967513 -0.370019 -0.106435
1.049196 0.032068 -0.076342
0.951258 -0.262859 -0.450422
-0.935769 -0.161382 -0.150158
0.133959 -0.064932 0.023952
-0.299988 0.062135 -0.086042
-0.493912 -0.033630 -0.506820
1.023619 0.304198 -0.140425
-0.357397 -0.418972 -0.303884
1.005285 0.075544 -0.012483
-0.229747 -0.157867 -0.327988
0.780971 0.379596 -0.115104
-0.158643 -0.065541 -0.300889
0.725270 -0.357058 -0.437611
-0.693015 -0.069707 0.254661
0.302234 0.259967 -0.329913
0.088284 -0.059136 0.007344
0.118475 0.118317 -0.122568
0.165436 0.088258 0.025023
0.805799 0.064293 0.363290
0.691267 -0.342477 -0.522728
0.947979 0.260861 -0.219393
-0.931697 -0.071319 0.054662
0.529022 -0.446584 0.001719
-0.547306 -0.068391 0.168865
0.610058 -0.284721 0.117323
-0.265628 -0.109234 -0.036865
0.832256 0.198085 0.259162
-0.418729 -0.526416 -0.279526
0.530343 -0.197724 -0.627235
0.552395 0.202692 0.144950
0.207312 0.150456 -0.112797
-0.894195 -0.178759 0.188080
0.464676 0.328415 -0.341354
0.811662 0.308733 0.136398
0.243092 0.192592 -0.441074
-0.625406 0.246652 0.147653
0.232976 -0.282146 -0.227439
0.718404 0.229228 -0.333276
-0.364763 -0.256582 -0.437886
0.290551 -0.251591 -0.002566
0.113264 0.133248 -0.174047
-0.670795 -0.369697 -0.258890
-0.516919 -0.355112 0.007075
0.518021 0.221594 0.046305
-0.214577 0.084418 -0.280322
0.328093 -0.092561 0.093044
0.882631 0.387283 -0.015860
0.659578 0.176498 -0.384786
-0.342062 0.037215 -0.018293
1.163486 -0.213379 -0.188261
-0.159101 0.040982 -0.276106
-0.675945 -0.387439 -0.172251
1.024339 0.116517 -0.064748
0.941819 -0.272917 0.248595
0.728804 -0.199095 -0.543155
0.995312 0.051679 0.015866
0.391723 0.252752 -0.200226
0.506327 0.207683 0.074323
0.508137 0.202491 -0.436462
0.188227 0.152114 -0.140816
-0.214051 -0.152579 -0.310491
0.659350 -0.460540 -0.203793
-0.849958 -0.283904 0.048126
0.510282 -0.538116 -0.052085
-0.217597 0.043103 -0.177178
-0.525673 -0.000763 -0.476795
0.452648 -0.064974 0.160047
0.715834 -0.057313 0.276290
0.359221 -0.163063 0.071062
0.537211 -0.484497 -0.013754
-0.638280 -0.395092 -0.263746
0.493613 -0.441028 -0.462596
-0.434840 -0.163637 -0.579725
0.840359 -0.360145 -0.289567
-0.832444 0.227611 -0.037257
0.347004 -0.121248 0.086767
0.229339 -0.300520 -0.053192
0.496308 -0.469971 -0.371734
0.436518 -0.183102 -0.646784
0.090425 -0.035218 -0.063545
-0.730962 -0.272177 -0.302204
-0.197138 0.005436 -0.407849
0.504066 -0.384723 -0.620446
-0.644624 0.305152 -0.139377
-0.928809 0.189822 -0.197292
-0.284264 -0.348325 -0.064716
-0.284410 -0.291025 -0.301380
-0.555927 -0.259630 -0.487025
-0.462975 -0.447521 -0.110767
-0.586345 0.187790 0.150359
-0.772266 0.255330 0.024147
0.647796 0.172493 0.351342
0.966067 -0.322176 -0.253009
-0.261903 0.089562 -0.181318
0.114991 0.126193 -0.175489
0.125644 -0.048537 -0.123607
-0.912463 -0.213432 -0.122444
0.853993 0.251418 -0.264261
0.426386 -0.485710 -0.408353
-0.503681 -0.469707 -0.362578
-0.576300 0.277614 0.014943
0.257757 -0.418641 -0.100159
0.899532 -0.137255 0.271602
0.903812 -0.245202 0.262563
-0.131143 0.023900 -0.292576
-0.675533 0.342330 -0.040858
-0.629700 0.098471 0.227628
0.301988 -0.016207 -0.464970
-0.670076 0.317526 -0.125394
-0.660177 0.089768 -0.370961
0.602497 -0.198590 -0.596850
0.248269 -0.009029 0.100747
1.036020 -0.363975 0.110694
-0.793420 0.259324 -0.209423
-0.412973 -0.273356 -0.491222
-0.475458 0.135174 -0.388517
-0.145941 0.025575 -0.266903
0.310618 0.117674 -0.535967
0.549876 0.228626 -0.405557
0.596736 -0.270031 -0.635058
0.071050 0.052155 0.020565
0.354336 -0.588396 -0.143850
0.448301 0.008688 -0.558993
-0.153376 -0.077539 -0.284510
-0.864130 0.157504 -0.027234
0.105725 -0.145796 -0.046633
0.933047 0.216071 -0.248182
0.490679 -0.518707 -0.230984
-0.391927 -0.516862 -0.276566
-0.524441 0.040410 0.150809
-0.338953 -0.464339 -0.243969
-0.826999 -0.062027 0.191196
-0.336308 -0.352459 -0.325701
0.105846 0.035493 -0.121254
-0.960637 -0.165762 -0.113901
0.663324 0.312397 -0.053463
-0.210771 -0.196123 -0.272768
-0.821047 -0.230176 0.176975
0.206788 0.019040 -0.302310
0.530004 -0.298193 -0.677652
-0.575212 0.055538 0.189954
-0.355729 -0.017434 -0.554710
1.094585 -0.136478 -0.091625
0.916921 0.436633 -0.144707
0.852803 -0.178381 0.274212
-0.694303 -0.237418 -0.365535
0.440393 -0.311368 0.031523
-0.343646 0.153799 -0.304848
-0.253123 0.099570 -0.387108
0.897792 0.334213 0.081366
-0.838068 -0.278234 0.082080
-0.274976 0.099591 -0.408764
0.512315 -0.449883 -0.413253
0.327462 -0.018914 0.129625
-0.949258 0.111245 -0.206669
-0.804429 0.204693 0.018660
0.305377 0.156173 -0.542015
0.202904 0.148658 -0.112666
-0.806752 0.060891 0.125188
0.828592 -0.441938 -0.056145
-0.335446 -0.454947 -0.246324
1.043301 0.048647 -0.072176
0.973576 -0.191029 -0.434574
-0.553374 0.253973 0.026289
0.406455 0.221841 -0.470209
-0.231591 0.094398 -0.270757
0.265457 -0.170451 0.027317
0.594940 -0.358689 -0.589739
-0.655782 -0.322153 0.056421
-0.557027 -0.107259 0.167053
0.167795 -0.276289 -0.108570
0.780442 0.282540 0.178065
1.154057 -0.146965 -0.197972
-0.763441 -0.141671 0.250070
0.699584 0.334867 -0.077785
0.337507 0.287152 -0.466978
0.953258 0.053448 0.093383
0.714657 0.194745 0.364557
-0.705828 -0.154455 0.220408
0.641234 -0.199114 -0.580567
1.008564 -0.177586 0.085292
0.689587 -0.398588 0.094315
0.223076 0.019789 -0.332923
-0.302454 0.042770 -0.066055
0.931817 -0.354794 -0.195544
0.959146 0.003969 0.102733
-0.997169 -0.174650 0.043685
-0.822693 -0.255533 0.138083
0.965173 -0.231105 0.187985
0.869311 -0.098830 0.312060
-0.821577 -0.063521 0.199774
1.032595 -0.167602 0.036483
0.387726 -0.559400 -0.231871
0.679130 -0.063482 -0.496514
-0.133171 0.029090 -0.301923
0.354827 -0.573311 -0.229407
0.130601 -0.214188 -0.052166
-0.365042 0.162561 -0.302657
0.708774 -0.520076 0.041720
0.890682 0.231810 0.136616
-0.865264 0.109478 -0.258271
1.205311 -0.196283 -0.273095
0.992605 -0.416696 0.065105
-0.763162 0.369387 -0.057315
-1.016123 -0.119643 -0.024284
0.747202 0.350283 -0.260403
0.306543 0.299920 -0.445665
0.846104 0.073044 -0.356884
0.863032 -0.022439 0.292395
0.302864 -0.538405 -0.252311
1.118555 -0.201783 -0.378033
-0.256476 0.087676 -0.426429
-0.819957 -0.207656 -0.249390
-0.737810 -0.003148 0.268622
-0.868464 -0.236619 0.159742
-0.423045 0.018964 -0.506386
0.385917 -0.215885 -0.539184
-0.364324 0.079536 -0.022824
0.505691 -0.100949 -0.589340
-0.399408 0.115697 -0.415078
-0.297044 -0.482792 -0.158766
1.045782 -0.333500 -0.122660
-0.484981 0.192849 -0.306280
0.405885 -0.464303 -0.474396
-0.757278 -0.318204 0.036385
-0.721519 -0.343980 -0.215974
0.929926 -0.427513 0.022312
0.246241 0.130386 -0.005125
0.287101 0.148546 -0.504881
-0.387971 -0.373016 -0.039721
0.985580 -0.104013 0.097863
0.886075 0.332391 -0.210041
-0.265256 -0.134779 -0.394314
0.353134 -0.357499 -0.420078
0.441372 0.170363 0.109019
-0.541156 0.048215 0.163264
0.908314 0.231163 0.104078
-0.512090 -0.403079 -0.049705
0.644199 -0.212291 -0.585895
-0.423251 0.010797 -0.512044
0.486149 -0.379691 0.016879
0.573879 -0.448002 -0.344754
0.502021 -0.100718 -0.590792
0.142037 -0.176812 -0.101468
-0.558614 0.176641 -0.333398
1.088762 0.023014 -0.278275
0.569346 -0.512904 -0.153746
-0.440724 -0.003418 0.089269
0.447881 0.146315 0.189662
-0.750260 -0.324316 0.025577
1.088166 0.116764 -0.231620
0.773918 0.136318 0.393050
0.126570 -0.102940 -0.103005
-0.741562 0.204886 0.104753
-0.457537 -0.001744 -0.507046
-0.992666 -0.106385 -0.127261
0.242326 0.170861 -0.132370
-0.887906 0.208923 -0.099080
0.951418 -0.245510 -0.471299
0.189327 -0.201168 -0.179457
0.820348 0.312871 -0.247882
0.535739 -0.071613 0.192214
0.788836 0.118337 0.372673
0.238239 -0.155190 -0.289330
0.487920 -0.181500 -0.637236
-1.005245 -0.106494 -0.019395
1.090900 -0.163194 -0.073805
0.791571 -0.009713 0.332456
0.593406 0.036600 0.270991
0.550606 0.002792 0.235794
-0.471314 -0.155633 0.104390
0.428803 -0.453127 -0.504079
-0.501581 -0.045190 -0.507725
0.916938 0.413212 -0.156419
-0.238712 0.099929 -0.355305
-0.410270 -0.006630 0.064126
0.398317 0.286105 -0.293244
-0.326493 -0.058540 -0.536486
0.165469 -0.010678 -0.213238
0.901125 -0.021183 -0.380533
-0.168888 -0.001141 -0.364078
-0.310454 -0.141847 0.000487
0.674120 0.298109 0.002800
1.026604 0.285872 -0.138458
0.780255 0.238689 0.310587
-0.774879 0.051606 0.175995
0.467652 -0.542153 -0.187758
0.445550 -0.560157 -0.090762
0.538827 -0.499097 -0.232321
0.850912 -0.482436 0.093352
0.286721 -0.599631 -0.178352
0.160528 -0.084596 0.025460
-0.926596 0.019563 -0.227886
0.823674 0.221925 0.265346
1.145910 -0.114510 -0.322680
0.756732 -0.297873 -0.578861
0.656879 -0.363116 -0.501693
-0.143326 -0.012797 -0.213096
-0.620665 0.005758 -0.426569
0.416077 -0.384815 -0.525978
0.927391 -0.171385 -0.444471
-0.932032 0.037641 -0.028931
0.361674 0.317376 -0.432069
-0.549987 -0.022928 -0.474225
0.636654 -0.388013 -0.450699
-0.325967 0.117037 -0.397343
-0.560552 0.269375 -0.167364
-0.152530 0.013337 -0.233924
0.640499 0.257400 0.085518
0.466974 -0.273919 -0.666181
0.365106 0.298004 -0.369288
-0.515627 -0.048380 0.149524
1.159977 -0.034685 -0.255062
0.974021 0.097453 0.036695
0.669585 0.071134 -0.433233
-0.677207 -0.337757 -0.303085
-0.417425 0.059931 -0.474941
0.543951 0.133572 -0.455651
-0.762589 -0.332914 -0.017475
-0.831833 -0.230592 0.175881
0.780986 0.345673 -0.248281
1.014361 0.243191 -0.199882
-0.886697 -0.085311 0.127068
0.968100 -0.255143 -0.453480
0.391448 -0.548953 -0.108263
0.908839 0.144852 0.138519
-0.355704 -0.388716 -0.324645
1.019663 0.244629 -0.108619
-0.354063 0.032645 -0.003213
0.828056 0.120495 -0.340849
-0.652249 -0.029024 0.242135
1.025947 -0.305225 0.105326
-0.971564 -0.221521 0.029503
-0.744766 0.314601 -0.153680
-0.414694 -0.479848 -0.154903
1.031218 -0.049644 -0.339209
-0.687150 0.159430 0.214076
0.886440 -0.078268 -0.415368
0.259557 0.282599 -0.449857
0.600978 0.179766 0.272902
0.890764 -0.074828 0.262297
0.947883 -0.185774 -0.442919
0.892058 -0.313775 -0.367632
0.414655 0.080236 -0.537563
-0.525476 -0.176219 0.127632
0.044435 0.042198 -0.009747
0.647148 -0.357016 -0.531886
0.683505 -0.078184 -0.502003
-0.869854 0.281012 -0.129319
-0.278238 -0.013185 -0.056575
0.114193 -0.169726 -0.052570
0.450641 0.109771 -0.507414
0.474127 -0.533414 -0.206410
0.740341 -0.271179 0.179744
-0.499425 -0.062140 0.137437
-0.424759 -0.144882 -0.581800
0.232185 0.177248 -0.163927
0.344012 -0.322978 -0.015451
-0.339100 -0.170792 0.018830
1.027035 -0.034699 -0.007711
0.692989 0.226501 0.242313
0.561430 -0.186053 -0.608117
0.647823 0.320974 -0.098108
0.379818 0.278974 -0.452998
-0.510920 -0.072967 0.144333
0.299994 0.304513 -0.467463
0.278462 0.239841 -0.297636
0.673097 0.288523 0.030586
0.153295 -0.008180 0.060608
0.816316 -0.294055 0.200747
1.043754 -0.390004 0.045944
0.550468 0.319758 -0.211754
0.844246 -0.181834 0.268829
1.099085 0.049442 -0.176290
-0.247527 0.101272 -0.249036
1.086026 -0.015574 -0.298752
-0.536735 -0.268452 -0.501508
0.248438 0.159646 -0.091052
0.244447 0.089867 0.115373
1.058794 -0.258498 -0.334025
-0.532226 -0.464471 -0.299998
-0.423511 0.199315 -0.241280
0.626489 0.125044 -0.424665
-0.757499 0.341830 -0.021592
0.486459 0.318036 -0.283680
-0.489307 0.064785 0.113888
-0.679757 -0.155121 0.209522
-0.885377 -0.225584 -0.146387
-0.673760 -0.319420 -0.329319
1.170563 -0.249291 -0.227198
-0.888654 -0.230260 0.165132
0.202282 -0.026008 0.072610
0.812167 0.222773 0.286407
-0.444653 0.049349 -0.476826
-0.446562 -0.017764 -0.520658
-0.411718 0.028582 -0.502754
-0.926517 -0.168686 0.136055
-0.126411 -0.204801 -0.150422
-0.675953 0.159275 -0.322275
0.600595 0.061310 0.286426
-0.901625 -0.257915 0.072070
1.082102 -0.108085 -0.346719
0.904208 -0.195185 0.286674
-0.801574 -0.277265 -0.200042
-0.496991 -0.473697 -0.366674
-0.672550 0.332681 0.080153
-0.901023 -0.229561 -0.115143
1.023683 0.041284 -0.296930
0.348571 0.080462 0.188366
0.954683 -0.446801 0.183416
1.167904 -0.205291 -0.199800
0.334949 0.019075 -0.540776
-0.464198 -0.496205 -0.376846
-0.644010 0.324572 -0.065374
0.741688 0.380186 -0.247795
0.926884 0.443736 -0.133424
-0.450653 0.075654 0.072604
0.533218 -0.510657 -0.204087
0.092760 0.002275 -0.083275
0.729913 -0.459002 -0.123410
-0.142173 0.017723 -0.258411
-0.473474 -0.348340 -0.517007
0.836648 0.280723 -0.257005
0.389675 0.179311 0.019626
-0.423064 0.163305 -0.342270
1.011533 -0.301105 -0.262001
0.598645 -0.343157 0.083208
0.704276 0.032127 -0.437934
0.167395 0.130674 -0.274826
-0.580668 0.270876 -0.182563
1.046244 0.038255 -0.288809
0.661253 0.193747 0.303218
-0.643922 -0.169699 -0.431093
-0.199668 -0.135429 -0.303846
0.807433 0.387806 -0.108067
1.176799 -0.112094 -0.254594
0.728074 -0.324985 -0.531322
-0.368232 0.128052 -0.068997
0.374809 0.165580 0.043278
0.249587 0.161332 -0.440330
-0.293855 0.111071 -0.166082
0.503528 -0.414745 -0.530212
0.340336 -0.449924 -0.358339
0.346571 -0.205362 -0.470298
-0.532970 0.053411 0.155404
-0.336207 0.156491 -0.258281
0.588022 0.184631 0.242560
1.054098 0.020026 -0.080519
-0.992323 -0.036323 -0.055206
-0.762667 0.279194 0.019108
0.303208 -0.034326 -0.459805
0.771861 0.250132 0.265828
-0.936615 0.098413 -0.081584
0.495711 -0.480205 -0.029331
0.550947 -0.142773 -0.590938
1.061321 -0.353277 -0.044064
0.729293 0.308587 0.037575
0.496401 -0.467490 -0.379132
0.372612 0.156523 -0.517347
-0.488910 -0.475729 -0.379438
0.911722 0.135821 0.136861
0.903092 -0.314592 -0.351862
-0.832761 -0.068926 0.188555
1.135963 -0.227349 -0.335320
-0.840645 -0.021318 0.141416
0.469728 0.329203 -0.337651
-0.330061 0.090826 -0.445697
-0.203693 0.051588 -0.212923
1.013731 -0.148620 0.063791
0.377403 -0.252163 -0.508457
-0.502598 -0.080029 -0.519173
0.982733 -0.090002 0.097409
-0.191564 0.046246 -0.224359
-0.332898 -0.338947 -0.038315
0.580327 -0.432163 0.030848
-0.917654 0.203313 -0.197375
1.004329 0.347855 -0.122450
1.097688 -0.317940 -0.107208
1.053861 -0.336644 -0.103408
0.508448 -0.420369 0.006049
1.143325 -0.150462 -0.176570
-0.194000 -0.364514 -0.121286
0.244498 0.262437 -0.406970
0.604071 -0.157181 0.178583
0.584742 -0.408348 -0.451702
-0.494834 -0.410368 -0.468157
0.493920 0.298979 -0.394254
0.485287 0.299318 -0.228431
0.814698 0.146763 0.312888
-0.381488 -0.451297 -0.312269
0.730630 0.321141 0.001182
0.594106 -0.425154 -0.389542
-0.794915 -0.197710 0.212532
0.420679 0.326512 -0.411760
0.836779 -0.382044 -0.227588
0.562763 0.192472 0.188385
-0.735298 0.339849 0.010374
-0.400934 -0.518726 -0.229394
0.537297 -0.140571 -0.595667
1.008922 0.197546 -0.069315
0.119845 -0.134960 -0.077353
0.666603 -0.418774 -0.321487
-0.793140 -0.323244 -0.066546
-0.334112 -0.165353 0.016041
0.966992 -0.294844 0.210756
-0.593296 -0.126204 -0.470499
-0.176217 -0.230972 -0.097622
0.747760 -0.177276 -0.524141
-0.696029 0.303737 0.091795
0.615011 -0.477732 0.022860
0.853854 0.202469 -0.288813
0.278435 -0.198409 -0.346380
-0.206736 -0.336962 -0.159779
0.448650 0.286934 -0.235094
-0.235052 -0.241463 -0.271484
1.067867 -0.351699 -0.040954
0.321789 -0.114745 -0.461375
-0.372117 -0.241760 0.022934
-0.831621 0.123131 -0.272772
0.363543 -0.346383 -0.444006
0.627820 -0.385822 0.074321
0.815341 0.116330 0.324182
0.126803 -0.139523 -0.088426
-0.675220 -0.171626 -0.405081
0.933053 -0.265824 0.261993
0.142432 -0.002090 0.059015
0.934813 0.445657 -0.129685
-0.769580 0.255043 0.028050
0.831521 -0.302864 -0.473620
-0.545094 -0.208679 -0.504927
-0.494816 -0.122738 -0.534528
0.187409 0.217704 -0.340357
-0.884158 -0.174988 -0.200299
0.533913 -0.510496 -0.028171
0.474851 -0.184378 -0.644258
-0.776727 0.336412 -0.043836
0.247154 0.240118 -0.468134
-0.429604 -0.307010 0.019702
-0.499677 -0.204773 0.103097
-0.977920 -0.202321 -0.026692
-0.229283 0.000580 -0.448241
-0.194014 -0.039372 -0.369378
0.966497 -0.137123 0.146955
0.043291 0.019395 0.001739
0.367560 -0.087238 0.112564
-0.389982 0.178046 -0.134877
-0.611965 -0.049987 0.213046
-0.105008 -0.077696 -0.202071
-0.762891 -0.193899 -0.318137
0.678291 0.375855 -0.277040
1.021244 -0.337335 -0.140623
0.505888 0.218321 0.041590
0.946444 -0.349254 0.228707
-0.663263 0.333590 0.048722
0.293998 -0.556967 -0.228199
0.666604 -0.087822 -0.514044
0.757616 -0.385359 0.129990
0.726429 0.057441 -0.415806
-0.905465 0.190655 -0.208771
-0.475951 0.053440 0.105443
0.993765 -0.164996 0.107659
-0.963835 -0.110826 -0.155990
0.994919 -0.406267 0.036323
-0.658749 -0.381131 -0.255998
-0.589936 -0.384670 -0.368850
-0.291847 -0.344560 -0.270736
1.185131 -0.237544 -0.245203
0.067771 0.021509 0.038935
1.033053 0.095155 -0.072195
-0.858232 -0.278731 -0.083315
1.049352 -0.232474 -0.422947
-0.249885 -0.053888 -0.065951
-0.742145 0.027374 0.239389
-0.886268 -0.224377 0.177009
-0.333446 -0.185174 -0.449407
-0.684143 -0.125193 -0.404057
0.992362 0.098917 0.001971
-0.540369 0.270322 -0.101422
0.671280 -0.043001 -0.489619
0.735770 -0.394477 -0.311682
0.579365 -0.463528 -0.291141
-0.288007 -0.479281 -0.162681
0.440058 -0.033563 -0.583655
-0.333738 0.117208 -0.106659
-0.288827 0.067705 -0.106551
-0.295032 0.014684 -0.542125
0.555327 0.237814 0.042162
0.824997 0.260454 -0.272124
-0.290403 0.038928 -0.077117
0.584263 -0.171632 0.162892
0.305952 0.224893 -0.219256
0.673219 -0.364023 -0.479256
0.143391 -0.240169 -0.059704
-0.964953 0.161688 -0.168735
-0.532214 -0.249258 -0.509696
-0.612464 -0.345784 0.025470
0.523257 0.192376 0.141063
-0.617718 0.143010 -0.352698
-0.329645 -0.378846 -0.063428
-0.545407 0.066825 -0.430923
-0.784303 -0.224818 0.182217
-0.374328 0.057181 0.004014
-0.493045 0.128610 -0.393825
0.186240 -0.327933 -0.085317
0.430650 0.330251 -0.387918
0.146339 0.082319 -0.215808
-0.443564 -0.504500 -0.226813
-0.677732 0.218830 0.181676
0.949981 0.172321 0.050700
0.138444 -0.197648 -0.086232
-0.695066 -0.355591 -0.016192
0.091093 0.036386 0.056340
0.238101 -0.026672 -0.341811
1.001360 -0.031657 0.038812
0.676268 0.124821 0.350526
0.817389 0.109332 0.323242
0.772843 0.133126 -0.358112
0.877646 -0.149684 -0.454859
0.745582 -0.306713 -0.565536
0.332145 -0.148492 0.066788
1.102848 -0.198069 -0.081723
-0.803303 -0.052555 -0.317590
-0.810398 0.318203 -0.076132
0.917247 0.267528 0.072534
1.059564 -0.296944 -0.216714
0.212376 -0.233727 -0.027016
-0.611023 -0.248272 0.123396
-0.537515 -0.360119 -0.458637
-0.854914 -0.207472 -0.208089
-0.867420 -0.243247 0.147308
-0.863576 0.128373 -0.253670
0.120742 0.070406 -0.163296
0.283252 0.090708 0.159592
-0.809390 -0.203165 0.209044
0.879691 -0.467468 0.141045
0.999390 0.234816 -0.066873
0.257998 -0.046094 -0.370860
-0.517168 -0.476037 -0.284258
-0.290465 -0.108256 -0.449132
0.257119 -0.465798 -0.196995
0.989294 -0.050621 0.069042
-0.597173 0.301867 -0.061962
0.692069 -0.460881 -0.163330
0.072301 0.024059 -0.054149
0.309156 0.035001 0.148785
-0.413345 -0.512771 -0.222883
0.527591 -0.468679 -0.009947
-0.161584 -0.290008 -0.133664
-0.367706 -0.232328 -0.460429
0.111938 0.040537 -0.134658
0.297424 -0.141492 0.055461
1.075014 0.161812 -0.177617
0.802403 0.225301 -0.299364
-0.468776 0.103555 -0.423288
-0.586768 -0.429325 -0.139529
0.636576 -0.461684 -0.227776
0.381614 -0.468213 -0.427633
0.314214 0.187713 -0.096747
0.114496 0.033868 0.065076
0.846833 -0.384195 -0.208960
0.403571 0.103680 0.223476
0.584662 -0.448347 -0.330714
-0.324307 0.122674 -0.132602
0.435945 -0.258090 0.056283
0.220637 0.122892 -0.370693
0.649441 0.186282 0.311583
-0.117484 -0.008008 -0.256687
0.475453 0.281359 -0.185917
-0.938999 0.085563 -0.216832
0.964238 -0.034582 -0.360281
0.632157 -0.061900 -0.515786
-0.381603 -0.480286 -0.151302
0.232286 -0.143090 -0.283219
0.943020 -0.311031 0.246370
-0.321639 0.061373 -0.058555
0.268796 -0.337252 -0.271471
0.834729 0.370488 -0.212909
0.253775 -0.185877 -0.305642
-0.472716 -0.322105 -0.535983
0.253034 0.133415 -0.435288
0.812250 -0.059453 -0.437641
-0.447025 -0.488833 -0.185019
0.895666 0.399712 -0.172259
0.536108 0.296309 -0.158077
0.494045 0.264767 -0.113282
0.198989 -0.009223 0.079602
-0.779099 0.231355 0.033066
-0.866594 0.055008 -0.268431
0.246796 -0.183097 0.013019
0.360586 -0.029679 0.138386
0.976741 -0.419855 0.055550
0.568605 -0.366921 -0.596560
-0.774565 -0.025408 -0.338361
1.084641 0.124555 -0.180240
1.010208 0.163017 -0.057537
0.252511 -0.103284 -0.337183
-0.649258 0.186143 -0.308391
0.207151 -0.069855 0.052749
-0.673635 -0.275778 0.113184
-0.741684 0.284949 -0.192442
-0.228438 -0.120394 -0.354782
0.248222 -0.314179 -0.242660
