ply
format ascii 1.0
element vertex 1682
property float x
property float y
property float z
end_header
0.408341 0.008996 -0.290441
0.271314 0.322803 -0.742296
0.439914 -0.073892 -0.555064
0.146696 0.356362 -0.649078
-0.000457 0.098472 -0.771261
0.282750 0.246693 -0.800208
-0.036984 0.031569 -0.718420
0.264636 0.009636 -0.805969
0.514525 0.065957 -0.474999
0.179848 0.370833 -0.620606
0.110865 -0.154487 -0.375011
0.187215 -0.158730 -0.348729
0.243402 -0.017425 -0.798853
0.501975 0.188330 -0.588225
-0.022868 -0.104605 -0.510997
0.425214 -0.046640 -0.638544
0.376585 -0.137902 -0.536354
0.285410 0.192790 -0.266460
0.436123 -0.079913 -0.419833
-0.050799 0.162783 -0.515019
0.318206 -0.019951 -0.253447
0.099664 0.001752 -0.808221
0.088497 0.335068 -0.563863
0.514913 0.071334 -0.467469
0.175362 0.227510 -0.304993
-0.047434 -0.071521 -0.551527
0.390899 0.323091 -0.654389
-0.057913 -0.024228 -0.635162
0.315458 0.320090 -0.727574
0.372286 0.300873 -0.381352
0.392209 0.346869 -0.547132
0.362098 -0.149165 -0.528312
0.124875 -0.118323 -0.323834
0.518929 0.108848 -0.470258
0.314212 0.289440 -0.343831
-0.063890 -0.033201 -0.542824
0.502562 0.148980 -0.604407
0.224239 -0.146884 -0.329982
0.378777 0.144117 -0.775784
0.484949 0.048916 -0.372369
0.120186 -0.004371 -0.269285
0.519660 0.125240 -0.523595
-0.068124 -0.012584 -0.526075
0.377292 0.013887 -0.267691
0.416335 -0.097105 -0.407872
0.435044 0.311384 -0.491472
0.289929 0.092535 -0.236032
0.490898 0.176550 -0.627531
0.475902 0.264254 -0.482468
0.208878 -0.090970 -0.278291
0.397688 0.242862 -0.732928
-0.077325 0.068365 -0.543190
0.148712 -0.139586 -0.700613
0.259507 -0.093349 -0.736059
0.250341 -0.152078 -0.340448
0.508728 0.171624 -0.573403
0.315374 0.358127 -0.661446
0.153255 0.030505 -0.251337
0.171820 0.028939 -0.245469
0.265992 0.216443 -0.817985
0.252881 -0.056518 -0.257566
0.480440 -0.024952 -0.455290
0.387971 0.347982 -0.574334
-0.034304 0.011809 -0.413328
0.023428 0.211644 -0.753604
0.472125 0.189200 -0.370101
0.188718 0.358144 -0.477026
0.481586 0.218655 -0.413046
0.470731 0.080628 -0.339708
0.510181 0.079369 -0.430100
0.078272 -0.178574 -0.472353
0.345900 0.362680 -0.609186
0.184851 0.005164 -0.819162
0.042403 -0.104249 -0.700240
-0.050467 -0.062623 -0.585468
0.186324 -0.198537 -0.445257
0.164807 0.053814 -0.835496
0.456416 0.101687 -0.320986
0.211565 0.270704 -0.798001
0.253464 -0.182952 -0.589338
0.110354 0.237506 -0.799102
-0.065496 0.026068 -0.485237
0.259822 0.214802 -0.278668
0.400937 0.155041 -0.757090
0.327005 0.089364 -0.804216
0.169609 0.357888 -0.668723
0.059275 0.185164 -0.348847
0.062189 -0.093121 -0.345397
0.181521 -0.131658 -0.316405
0.372186 0.315147 -0.403234
0.029346 -0.059928 -0.735931
0.340705 0.150937 -0.800508
0.000757 -0.133442 -0.545982
0.066567 0.083177 -0.817202
0.209673 -0.042674 -0.253204
0.038301 0.177381 -0.787031
0.375790 0.273137 -0.731927
0.042165 -0.164472 -0.544671
0.211497 -0.101558 -0.285556
0.365789 0.175064 -0.275902
0.349179 0.341154 -0.437379
0.100882 -0.185876 -0.574140
0.183062 -0.204060 -0.492999
0.160700 0.162580 -0.273360
0.386439 0.235107 -0.747318
0.378753 0.317234 -0.412161
0.292283 0.269419 -0.320452
0.185935 -0.040507 -0.256445
0.258834 -0.185808 -0.418030
0.052224 0.162068 -0.802246
0.083753 0.047054 -0.285459
0.438360 -0.084351 -0.447646
0.234972 0.017993 -0.235504
0.278253 0.330176 -0.730765
0.293369 -0.180824 -0.545865
0.034360 -0.043800 -0.752257
0.352633 -0.130575 -0.369350
0.189696 0.192876 -0.834488
0.404694 -0.093661 -0.599703
0.002416 0.126504 -0.770719
0.094337 0.334322 -0.643084
0.109105 0.097064 -0.833620
-0.057437 0.141361 -0.510048
0.270176 0.346995 -0.707324
0.284514 -0.188302 -0.476390
0.373837 0.151987 -0.779104
0.358506 0.133995 -0.259170
0.064007 -0.165961 -0.601270
0.407330 0.146862 -0.751736
-0.073124 0.041093 -0.513538
0.311413 0.049914 -0.802333
0.296764 -0.174997 -0.567014
0.155910 0.258872 -0.339769
0.431292 0.292723 -0.640895
-0.048529 0.122520 -0.696953
0.335879 0.058143 -0.243536
0.106694 0.344812 -0.560154
0.018856 -0.147742 -0.511728
0.453924 0.036190 -0.327172
-0.002496 0.155375 -0.400382
0.203559 0.336707 -0.419080
-0.061306 0.158119 -0.584442
0.430450 0.107204 -0.725803
0.427953 0.252630 -0.369008
0.322822 0.290414 -0.346898
0.273698 0.169541 -0.827325
0.037497 -0.149608 -0.455013
0.513351 0.124112 -0.566860
0.423305 0.321918 -0.497147
0.492864 0.080191 -0.618196
0.125098 0.000325 -0.266132
0.438868 0.144526 -0.310839
0.023471 0.198593 -0.398550
0.372946 0.125659 -0.779852
0.109391 -0.083846 -0.305769
0.470682 0.233266 -0.636284
0.223929 -0.202002 -0.493758
0.174076 0.252639 -0.807497
0.354075 0.239132 -0.769627
0.429592 0.031980 -0.700351
0.492364 0.094033 -0.375585
0.039491 -0.123204 -0.670128
0.062664 -0.144244 -0.654951
0.337499 0.139897 -0.254048
0.407716 -0.001334 -0.294147
0.089876 -0.186765 -0.496964
0.110543 0.336114 -0.504279
0.385096 -0.068474 -0.668329
0.054145 0.276583 -0.719248
0.177924 -0.118095 -0.304244
-0.011045 0.248790 -0.583830
0.420470 0.295444 -0.418862
-0.006273 0.092479 -0.765555
0.488994 0.058061 -0.614998
-0.027746 0.056409 -0.737838
0.347929 0.345700 -0.447476
-0.014935 0.026220 -0.745669
-0.043560 0.143009 -0.468342
0.271969 -0.011406 -0.241922
0.206872 -0.180432 -0.621667
0.412959 -0.056806 -0.645028
0.136674 0.329790 -0.712072
0.126295 -0.167341 -0.386429
0.147053 0.341224 -0.695879
0.201418 0.297934 -0.775452
0.510652 0.129615 -0.578640
0.502089 0.076324 -0.590289
0.206671 -0.078467 -0.764714
0.379945 -0.062793 -0.309729
0.083873 0.328750 -0.640569
0.051666 0.289427 -0.692651
0.135770 0.328508 -0.713846
0.153383 -0.199595 -0.467857
0.334550 -0.068097 -0.717355
0.450461 0.244045 -0.665621
0.457425 0.113529 -0.692542
0.309629 0.330990 -0.716260
0.091205 0.019224 -0.281679
-0.077250 0.035688 -0.542771
0.030350 0.267418 -0.697768
0.040953 -0.082179 -0.357192
0.209484 0.267252 -0.326618
-0.039131 0.142963 -0.706609
0.274470 0.376852 -0.515069
0.149149 0.216193 -0.308290
0.236445 0.181021 -0.833873
0.467056 0.264399 -0.449482
0.339532 -0.135355 -0.618640
0.251944 0.151038 -0.248856
0.099910 0.108909 -0.831291
0.437823 -0.069455 -0.398921
0.408350 -0.117645 -0.483866
-0.034752 0.118507 -0.724807
0.437881 0.239797 -0.688313
0.301973 -0.173881 -0.562936
0.181337 -0.001090 -0.246729
0.232095 0.025929 -0.821351
-0.015370 0.221916 -0.677114
0.256422 0.218639 -0.281241
0.125367 0.262575 -0.787775
0.201807 0.236458 -0.302814
0.202095 0.356164 -0.462492
0.193110 -0.178500 -0.382922
0.455214 -0.036084 -0.592555
0.194589 0.056727 -0.239213
0.290392 -0.134570 -0.329154
0.241291 0.370354 -0.488470
0.032834 0.155953 -0.790351
0.297851 0.343339 -0.419336
0.267857 -0.083737 -0.741916
0.236761 -0.139166 -0.689516
0.274337 0.089742 -0.826626
0.415969 0.191852 -0.311914
0.117350 -0.187850 -0.447340
0.187261 0.018489 -0.824425
0.392206 0.343974 -0.509569
0.326867 0.339876 -0.691463
0.120898 -0.155635 -0.669024
-0.055866 -0.047892 -0.599150
0.312708 0.262746 -0.779541
0.336533 -0.161001 -0.546791
0.377017 0.203057 -0.294745
-0.004641 0.140165 -0.759687
0.291589 -0.107692 -0.704017
0.513422 0.176138 -0.540438
0.277523 -0.139739 -0.668063
0.340329 0.210829 -0.285390
0.039537 -0.146769 -0.621176
0.120398 -0.187368 -0.441990
0.028969 -0.147002 -0.467566
0.430779 0.206860 -0.333041
0.387197 -0.067460 -0.666996
0.514662 0.118485 -0.559724
0.015394 0.197349 -0.754815
0.135705 0.119616 -0.268501
0.065180 -0.077339 -0.744108
0.458700 0.268717 -0.619804
0.050258 -0.009123 -0.315282
0.139951 0.349296 -0.501703
0.461348 0.266676 -0.439298
-0.026169 -0.084973 -0.629409
0.303139 -0.161309 -0.383634
0.377704 -0.098591 -0.635622
0.310220 -0.173974 -0.546037
0.114750 0.211905 -0.324501
0.183422 0.277817 -0.346062
0.353695 0.338044 -0.433660
0.207498 -0.162366 -0.352172
0.044832 -0.125249 -0.396591
0.034475 -0.143364 -0.444829
-0.031766 0.210242 -0.643929
0.453531 0.084585 -0.691604
0.337442 -0.158787 -0.422256
0.008274 -0.134746 -0.489244
0.083161 -0.137231 -0.682400
0.401354 0.249825 -0.343029
0.413490 0.269937 -0.374077
0.369431 -0.143682 -0.532143
0.231656 0.340312 -0.724295
0.002742 -0.092039 -0.416204
0.230698 0.037855 -0.825743
0.069138 0.233396 -0.778555
0.484170 0.030238 -0.604468
-0.073113 0.001171 -0.591160
0.234201 -0.038801 -0.788468
0.019666 0.036971 -0.781024
0.109958 -0.126318 -0.339949
-0.054176 0.146306 -0.665379
0.072214 0.322936 -0.631701
0.326665 -0.072146 -0.283889
0.428570 0.020329 -0.694680
0.381591 0.306328 -0.692597
0.121651 0.087720 -0.267977
0.229040 -0.201351 -0.493739
0.321728 -0.071389 -0.723509
0.025208 0.086661 -0.337835
0.205357 0.298735 -0.774928
0.146707 0.280945 -0.368226
0.477862 0.231802 -0.620538
-0.039727 0.013734 -0.706717
0.165747 -0.178400 -0.631373
0.163777 -0.183906 -0.616912
0.235597 0.266874 -0.799000
0.095077 -0.015843 -0.798569
0.442871 -0.080131 -0.454294
0.457456 0.126552 -0.325378
0.408209 0.315686 -0.641086
-0.023975 -0.003584 -0.399655
-0.060460 0.087609 -0.476560
0.286447 0.343600 -0.707599
0.336161 0.064992 -0.243469
0.006382 0.136422 -0.377067
0.130878 0.314395 -0.427625
0.085917 0.202481 -0.806458
0.046258 0.286239 -0.689750
0.232094 0.192559 -0.831894
0.299772 0.286934 -0.338710
0.363187 0.111015 -0.256222
0.110473 0.261253 -0.782066
0.275208 0.234079 -0.291043
0.036620 -0.091279 -0.369145
0.514908 0.073966 -0.525860
-0.030447 0.114505 -0.732661
0.381092 -0.110070 -0.368167
0.118919 0.335726 -0.681883
0.331536 0.165708 -0.261135
0.306234 0.224491 -0.801451
0.229926 0.108152 -0.239142
0.060025 0.316605 -0.567583
0.435809 -0.050424 -0.364199
0.500155 0.018904 -0.521812
0.365040 -0.069552 -0.689149
0.145365 0.109336 -0.841338
-0.013016 -0.100795 -0.629277
-0.031305 0.217041 -0.621663
0.195831 0.007770 -0.242018
0.180952 0.355879 -0.682219
-0.048460 -0.066578 -0.526402
0.365609 0.358374 -0.523486
0.131723 0.257232 -0.352093
0.121442 0.336074 -0.486327
0.222330 -0.202193 -0.503861
0.237388 0.293996 -0.778277
0.415952 0.301177 -0.423233
-0.055181 0.098633 -0.689848
0.033413 0.099002 -0.332786
0.500059 0.214152 -0.465936
0.428070 -0.080842 -0.573615
0.356270 0.054570 -0.777816
0.004894 -0.054270 -0.380560
-0.057689 0.150019 -0.647133
0.153521 0.344562 -0.692953
0.026069 0.034219 -0.784912
0.228116 0.168922 -0.837288
0.271571 0.085780 -0.826889
0.486109 0.231713 -0.443111
0.459762 0.177416 -0.685980
0.173605 -0.134481 -0.708617
0.438091 0.311105 -0.569445
0.026484 -0.061947 -0.358958
0.033785 0.179340 -0.370700
0.386627 0.174385 -0.766863
-0.036653 -0.002873 -0.421827
-0.015820 0.168123 -0.732543
0.507215 0.038301 -0.516764
-0.042199 0.143933 -0.699535
0.360120 0.209730 -0.777641
0.085832 0.330426 -0.637893
0.489295 0.177909 -0.630825
0.261878 0.023131 -0.234414
0.256177 0.380568 -0.539211
0.490754 0.165820 -0.388802
0.384886 -0.124769 -0.564337
-0.003535 0.229773 -0.484104
0.481981 0.212454 -0.628158
0.176813 0.015414 -0.245349
-0.001719 0.179208 -0.745615
0.447485 0.204191 -0.348047
0.262451 0.131961 -0.242587
0.321720 -0.164324 -0.414458
0.166823 0.140391 -0.262468
0.385802 0.088932 -0.264278
0.427183 0.053520 -0.294411
0.331545 0.367942 -0.511679
0.339054 0.365590 -0.606937
0.273683 0.347349 -0.424587
0.193538 -0.146336 -0.690103
0.103457 0.144014 -0.830144
0.497263 0.046801 -0.404459
0.459665 -0.044569 -0.410333
-0.007876 0.200341 -0.720473
0.342118 -0.089705 -0.687730
0.429892 -0.093381 -0.445485
0.385869 0.065490 -0.264189
0.144960 0.353459 -0.658459
0.227326 0.282936 -0.788321
0.018469 0.145088 -0.781523
0.056437 -0.046301 -0.322335
-0.055794 0.124691 -0.677524
0.094463 0.271765 -0.763099
0.500407 0.015501 -0.475580
0.444592 -0.056469 -0.391001
0.294267 0.376373 -0.610190
0.005245 0.037852 -0.354048
0.299783 -0.167886 -0.587634
0.312176 0.345484 -0.427596
0.371608 -0.125158 -0.384082
0.035400 0.006048 -0.325400
0.462267 0.265935 -0.440065
0.034468 0.293768 -0.633008
0.241922 0.352298 -0.702619
0.317110 -0.117570 -0.321118
0.520364 0.123733 -0.510882
0.084342 -0.171967 -0.436685
0.107479 -0.192595 -0.495431
0.018010 0.105538 -0.350550
0.307050 0.323272 -0.727982
0.095085 0.122018 -0.829383
0.350651 0.167367 -0.267216
0.518960 0.149146 -0.491266
0.015141 -0.023239 -0.353308
0.477183 0.103037 -0.658855
-0.062921 0.146892 -0.622241
-0.034498 0.149152 -0.712147
0.060200 0.023724 -0.801672
-0.058960 -0.047065 -0.547283
-0.055972 0.034379 -0.684147
-0.059307 -0.043204 -0.531533
0.146247 0.353371 -0.660435
0.420009 0.200455 -0.319904
0.050693 -0.004073 -0.313830
0.306046 0.327552 -0.392903
0.280405 0.173096 -0.824709
0.199805 0.095936 -0.842064
0.282801 -0.152932 -0.353213
0.228506 0.253608 -0.310136
0.188496 -0.204268 -0.506767
-0.046123 -0.056173 -0.625162
0.006657 0.255347 -0.669081
0.242163 0.364520 -0.469106
-0.078641 0.034457 -0.579397
0.426296 -0.035569 -0.650086
-0.054986 0.131813 -0.490463
0.344969 0.367806 -0.563761
-0.016849 0.002087 -0.733137
0.410813 -0.058932 -0.645532
0.494442 0.003349 -0.459653
0.185665 0.326604 -0.739759
0.509672 0.044332 -0.506264
0.420977 0.287162 -0.405636
0.304160 -0.093841 -0.291609
0.492112 0.197245 -0.613145
0.089416 -0.112724 -0.340383
0.285385 0.313900 -0.748133
0.086916 0.005813 -0.285913
0.469541 0.272436 -0.480498
0.503753 0.215318 -0.528752
0.183744 -0.200123 -0.555126
0.234218 -0.099712 -0.738565
0.206994 0.069827 -0.837564
0.038117 0.157374 -0.793928
0.408607 0.298650 -0.669485
0.357657 0.019998 -0.256307
0.093553 0.098188 -0.285688
-0.040436 0.147245 -0.464406
0.353200 0.306665 -0.378491
0.286624 -0.036045 -0.771885
0.114054 -0.129135 -0.340438
0.217695 0.348280 -0.436332
0.078281 0.086808 -0.822590
0.008027 -0.080827 -0.396323
0.146541 -0.064810 -0.278197
0.319103 -0.159386 -0.586630
0.171832 -0.040793 -0.259975
0.138873 0.316782 -0.424809
0.310596 -0.178870 -0.477814
0.482631 -0.020618 -0.518437
0.309075 -0.097124 -0.705128
0.203266 0.319073 -0.389898
0.462965 0.056968 -0.332925
-0.039093 0.018882 -0.420853
0.248641 -0.116782 -0.714627
0.472934 -0.039638 -0.465161
0.174007 0.156790 -0.266138
0.510853 0.065312 -0.543586
0.102870 -0.091146 -0.314332
0.297092 0.134345 -0.821819
0.084737 0.295021 -0.443450
0.489263 0.116942 -0.370034
0.242989 0.105589 -0.836911
0.093708 -0.166347 -0.411348
-0.025981 0.113386 -0.739452
0.508314 0.172976 -0.442949
0.148070 0.221859 -0.312839
0.237305 0.291583 -0.345266
0.341627 0.368443 -0.575443
0.520318 0.126895 -0.511544
0.359517 -0.129668 -0.376204
0.227362 0.323703 -0.389143
0.235207 0.373509 -0.503105
0.142600 0.060084 -0.255432
0.364296 0.266764 -0.337086
0.062112 0.006376 -0.302956
0.376205 0.290737 -0.715773
0.220553 0.173133 -0.837504
0.174264 0.087194 -0.247103
0.363292 0.339793 -0.445965
-0.063433 -0.031772 -0.532235
0.504700 0.213650 -0.517180
-0.007903 0.198617 -0.722029
0.478838 0.240929 -0.437296
0.188517 0.060533 -0.836970
0.210336 0.296009 -0.356775
0.368330 0.172925 -0.276037
0.167859 0.192182 -0.833455
0.052734 0.131393 -0.326054
-0.038368 0.066649 -0.419752
0.396470 -0.047712 -0.677892
0.371827 -0.039127 -0.287013
0.211936 -0.032073 -0.797218
0.309982 0.352216 -0.679218
0.493032 0.233961 -0.477197
0.424311 0.192462 -0.318729
0.269668 -0.172007 -0.384685
0.182229 0.041317 -0.242091
-0.072131 0.120916 -0.590904
0.010697 -0.120800 -0.444499
-0.013588 0.187695 -0.722100
0.498405 0.061874 -0.591809
0.406651 -0.004861 -0.294848
0.025144 0.245688 -0.722175
0.098363 0.075972 -0.828554
0.296451 0.093094 -0.236820
0.428575 0.068116 -0.293822
-0.032268 0.122088 -0.727813
-0.017779 -0.114170 -0.539383
0.247649 0.375940 -0.510443
0.065569 0.002669 -0.300953
0.197236 -0.204070 -0.507341
-0.016001 0.242405 -0.589502
-0.006435 0.133964 -0.393068
0.200685 0.096761 -0.241860
0.241128 0.009553 -0.236471
0.121676 -0.193758 -0.470751
0.466434 0.233939 -0.400650
0.482124 0.131947 -0.360225
0.102121 0.058823 -0.826809
0.209537 0.154176 -0.841223
0.095902 0.334766 -0.532059
-0.051234 0.023764 -0.690111
-0.042120 -0.041280 -0.658889
0.383445 0.083460 -0.262791
0.393822 -0.047009 -0.309103
0.033009 0.295846 -0.583993
0.141639 0.225586 -0.318890
-0.020954 0.178720 -0.716649
-0.031311 -0.094039 -0.581233
-0.004844 0.051030 -0.366721
0.383477 -0.126007 -0.408794
-0.063240 0.147789 -0.555215
0.514451 0.168024 -0.543369
0.440918 0.250069 -0.381074
0.289241 0.351967 -0.436002
0.270400 -0.089728 -0.734968
0.493163 -0.001679 -0.470974
0.230735 -0.057612 -0.257894
0.123376 0.102156 -0.269955
0.501847 0.047282 -0.565697
0.204382 0.355003 -0.458181
0.403031 -0.015313 -0.699777
0.075328 0.272120 -0.747847
0.474423 -0.033851 -0.524337
0.089129 -0.182179 -0.466617
0.184337 0.242306 -0.814498
0.233154 -0.086104 -0.752092
0.092129 -0.107565 -0.726197
0.221114 0.298743 -0.357016
0.321721 -0.160751 -0.402680
-0.036101 0.154935 -0.461221
-0.028278 0.066811 -0.738523
0.378269 0.315814 -0.683002
0.381859 0.192911 -0.291574
0.354363 0.339540 -0.667737
0.399161 0.239273 -0.332279
0.088754 0.330448 -0.646421
0.361665 0.102173 -0.785466
0.258814 -0.019893 -0.243482
0.410229 0.195015 -0.741367
0.177889 -0.133860 -0.709268
0.439294 0.243124 -0.371664
0.181388 0.031826 -0.829362
0.317808 0.102052 -0.810777
0.430314 0.293692 -0.430419
0.132689 0.249899 -0.344434
0.467874 0.215267 -0.383842
0.061693 0.202437 -0.359096
0.369101 -0.062057 -0.693103
0.087230 -0.172369 -0.433894
0.092790 0.257033 -0.775707
0.005323 -0.134658 -0.574904
0.426116 0.178130 -0.312816
-0.022585 0.082836 -0.396570
0.064686 0.223956 -0.781918
0.367477 -0.131128 -0.391391
0.502092 0.055791 -0.413731
0.017080 0.009311 -0.343137
0.016478 0.261707 -0.499971
0.478319 0.082250 -0.351107
0.257327 0.215454 -0.820426
-0.030072 -0.037844 -0.426742
-0.033020 -0.051329 -0.443879
0.410037 -0.087437 -0.601535
0.096834 0.014700 -0.812625
0.059937 -0.074992 -0.334540
0.061634 0.033503 -0.300949
0.073702 0.116229 -0.821165
0.117489 0.292679 -0.754913
0.481007 0.000876 -0.401323
-0.026229 0.170928 -0.454909
0.033007 -0.128668 -0.418215
0.052591 -0.155570 -0.616783
0.181468 0.076169 -0.243685
0.373683 0.348233 -0.616758
0.113674 -0.066298 -0.293542
0.182555 0.352518 -0.691544
0.513647 0.158289 -0.557420
0.132214 -0.164721 -0.655374
-0.077565 0.027498 -0.554669
0.282825 -0.041414 -0.253878
0.209227 0.328514 -0.740990
0.307142 0.032969 -0.798450
0.172807 0.243664 -0.812575
0.002075 -0.090985 -0.673877
0.252341 0.088013 -0.234285
-0.056801 0.108336 -0.477144
0.160096 -0.013641 -0.255364
0.437524 -0.077267 -0.553487
0.082938 -0.122948 -0.355487
0.006821 -0.084587 -0.688678
0.304289 0.054962 -0.807231
0.385991 0.304132 -0.690623
-0.066005 0.044348 -0.661027
0.307708 0.228723 -0.799136
0.438426 0.235337 -0.363080
-0.074080 0.001484 -0.564041
0.362907 0.340361 -0.656093
0.517939 0.133276 -0.464173
0.135942 0.359354 -0.590110
0.261905 -0.188574 -0.558249
0.254943 -0.186774 -0.418686
-0.016646 0.130577 -0.406595
0.360648 0.361693 -0.569761
0.417126 0.324833 -0.489480
0.406196 0.330452 -0.482642
0.016494 -0.028010 -0.749223
0.359606 0.078756 -0.251733
0.264363 0.072893 -0.826700
-0.003537 0.093023 -0.372380
0.517975 0.091221 -0.472616
0.302195 0.215484 -0.280535
0.181948 0.353569 -0.469172
0.124473 0.156865 -0.834170
0.512429 0.101966 -0.431844
0.101321 -0.075025 -0.761072
0.019374 0.270573 -0.515583
-0.033065 -0.052038 -0.665685
0.390480 0.253569 -0.733059
0.318867 -0.174139 -0.517704
-0.016578 0.223687 -0.509082
0.519718 0.107382 -0.515009
0.440647 0.309646 -0.510806
0.042040 0.271156 -0.464660
0.304179 0.355960 -0.674586
0.494217 0.088408 -0.618489
0.434778 0.115548 -0.722002
0.141544 -0.148182 -0.348476
0.320352 0.283495 -0.338728
0.466097 0.253251 -0.426346
0.352365 0.362960 -0.592029
0.303173 -0.008622 -0.245900
0.031021 -0.115668 -0.673219
0.299057 -0.165786 -0.391113
0.054901 0.312404 -0.563706
0.059419 0.056160 -0.303127
-0.050340 0.086672 -0.449766
0.019474 -0.052567 -0.361443
0.479322 -0.030000 -0.489120
0.357891 -0.115642 -0.633135
0.390977 -0.102413 -0.607833
0.509046 0.041132 -0.482647
0.407144 0.262053 -0.710084
0.040770 -0.034912 -0.331394
0.103735 0.136456 -0.290845
0.011400 -0.081656 -0.392242
0.506157 0.198573 -0.468073
0.003794 0.091691 -0.362815
0.387294 -0.024572 -0.289509
0.419883 0.296385 -0.655495
0.173671 -0.071006 -0.773950
0.127889 -0.196006 -0.550431
0.265089 0.357084 -0.446295
0.244978 0.373562 -0.645224
0.137179 -0.197226 -0.470268
0.008364 0.205357 -0.740255
0.242664 0.320488 -0.381141
0.215617 0.212154 -0.827738
0.122479 -0.087368 -0.755711
0.263757 0.303192 -0.765374
-0.040456 0.204061 -0.583364
0.498756 0.022123 -0.439207
0.265189 0.374154 -0.639402
0.355725 0.315797 -0.705118
0.175411 0.047974 -0.243849
0.364793 0.337182 -0.440993
-0.052913 0.027682 -0.688273
0.458011 0.214760 -0.368920
0.081930 -0.184668 -0.517368
0.511307 0.068372 -0.544741
-0.062473 0.129398 -0.515957
0.343946 -0.125590 -0.351495
0.400794 0.001929 -0.714747
0.220646 -0.014183 -0.242886
0.429466 0.038007 -0.299727
0.380896 0.328348 -0.436642
0.060442 -0.164223 -0.601603
0.391206 -0.116387 -0.574257
0.064464 0.136251 -0.318215
0.212344 -0.066800 -0.773249
0.315138 -0.062322 -0.736202
0.073302 -0.140376 -0.670750
0.272102 -0.190472 -0.458891
0.261735 -0.187557 -0.563265
0.099262 0.132473 -0.292125
0.487368 0.006066 -0.563431
0.347013 -0.140824 -0.595057
0.295511 0.180623 -0.818139
0.181482 0.372507 -0.554266
0.131249 -0.101034 -0.306494
0.169949 -0.203748 -0.499725
0.102120 -0.000478 -0.277925
0.307185 0.191213 -0.267766
0.306232 0.309533 -0.366628
0.332831 0.370645 -0.536383
0.242774 -0.158930 -0.654254
0.208700 0.018340 -0.238309
0.395159 0.169837 -0.760496
0.114497 -0.144779 -0.358690
0.316624 0.264038 -0.318934
0.113917 -0.009458 -0.273398
0.164329 -0.195501 -0.577234
0.285761 -0.186933 -0.463260
0.248491 0.373169 -0.497670
0.480110 0.229228 -0.617396
0.183985 0.032997 -0.829656
0.057165 -0.123015 -0.686395
0.245154 -0.194391 -0.445038
0.410696 0.173044 -0.745887
0.344301 0.204107 -0.282682
0.282941 -0.145353 -0.654858
0.509453 0.187051 -0.553776
0.073476 0.033101 -0.810568
-0.009460 0.155150 -0.748228
0.403111 0.147655 -0.284682
0.346061 0.087459 -0.247288
0.489004 0.016678 -0.574120
0.324170 0.295173 -0.749262
0.485742 0.032516 -0.383584
0.285978 0.267518 -0.318272
0.029964 0.105888 -0.338171
0.433295 0.227157 -0.702454
0.440594 0.177007 -0.712378
-0.048716 -0.014423 -0.453647
-0.038447 0.086650 -0.724079
0.152996 0.346923 -0.686702
0.422003 0.325159 -0.511482
0.099025 0.176404 -0.312229
-0.044722 0.095719 -0.712328
0.166271 0.346246 -0.697478
0.454571 0.294746 -0.562341
0.504717 0.209992 -0.540766
0.509986 0.128774 -0.423747
0.485451 0.188440 -0.635065
0.196071 0.364809 -0.663801
0.510454 0.118568 -0.423661
0.287983 0.379421 -0.591830
-0.009049 0.236128 -0.513419
0.127636 0.212799 -0.818320
0.480411 -0.023120 -0.447383
0.441222 -0.030787 -0.630345
0.077513 -0.074610 -0.752526
0.159069 -0.151672 -0.683243
0.176182 0.159184 -0.841162
-0.036689 0.208979 -0.565824
0.325353 -0.164160 -0.558876
0.298715 -0.064529 -0.744019
0.202965 0.327201 -0.402756
0.189721 -0.125259 -0.308458
0.389498 -0.080727 -0.336495
0.020434 0.279938 -0.547386
0.372929 -0.140410 -0.434972
-0.048224 0.141280 -0.687038
-0.029021 0.145134 -0.724110
0.238122 -0.135430 -0.694378
-0.078463 0.038303 -0.591190
0.450730 0.012347 -0.333542
0.047025 0.244335 -0.750407
0.390793 0.001315 -0.724424
0.336452 0.251289 -0.312756
0.095771 -0.007209 -0.803028
0.415371 0.309236 -0.438909
-0.050337 0.141788 -0.485947
0.001341 0.131376 -0.381038
0.254014 0.275317 -0.326159
0.408138 0.316553 -0.639390
0.227563 0.045067 -0.828559
0.071895 0.318363 -0.653142
-0.018016 0.037823 -0.384308
0.455113 -0.039295 -0.587270
0.110157 0.346909 -0.612569
0.116555 -0.097873 -0.311396
0.429145 0.241671 -0.698780
0.417680 0.292544 -0.410211
0.507371 0.114903 -0.412963
0.411997 -0.000086 -0.701006
0.330167 -0.139528 -0.362617
0.472643 0.065509 -0.344971
0.162023 -0.007064 -0.813850
-0.065511 0.141867 -0.612262
0.016816 0.280240 -0.578419
0.342629 0.296019 -0.359821
0.466194 0.148912 -0.680742
0.493848 0.021872 -0.563595
0.141395 0.069869 -0.256675
0.183653 0.336397 -0.724057
0.426567 -0.008903 -0.675794
0.335740 0.247753 -0.776386
0.012245 -0.043768 -0.365340
0.129442 0.331610 -0.464243
0.218379 0.325039 -0.746181
0.285000 -0.152489 -0.639924
0.329227 0.198446 -0.275563
0.094596 0.115713 -0.829459
0.128318 0.353721 -0.625200
0.420093 0.224939 -0.719445
0.391647 -0.050899 -0.310150
0.484282 0.022455 -0.596075
0.380223 0.352301 -0.573290
0.225807 -0.190991 -0.581204
0.147793 0.267524 -0.791747
0.239406 -0.182422 -0.396983
0.321899 0.334767 -0.409873
0.366093 -0.128161 -0.382276
0.179588 -0.003945 -0.815296
0.426519 -0.024386 -0.661615
0.320882 0.329417 -0.712029
0.454834 0.067874 -0.320522
0.160000 -0.174446 -0.640185
0.322805 -0.028488 -0.757704
0.046147 0.306893 -0.582145
0.028632 -0.066826 -0.729289
-0.040532 0.160033 -0.691469
0.446070 0.154061 -0.708948
0.197096 0.355940 -0.689284
0.000461 0.252415 -0.525077
-0.062814 0.097124 -0.669743
0.336853 -0.009010 -0.761285
0.288557 -0.021276 -0.780461
0.164251 -0.120491 -0.726197
0.038094 0.174836 -0.787900
-0.077362 0.061327 -0.540751
0.239222 0.330055 -0.396447
0.060855 -0.175250 -0.528607
0.419210 0.108208 -0.287101
-0.066265 0.142815 -0.595220
0.507940 0.056978 -0.549270
0.039963 0.160420 -0.352070
0.364097 -0.139800 -0.409456
0.314562 0.207743 -0.277742
0.205021 -0.128988 -0.712301
0.166901 0.045667 -0.246363
0.485550 -0.010673 -0.440193
0.432542 0.315668 -0.503254
0.403003 0.017510 -0.283369
0.065085 0.320397 -0.569486
0.236663 -0.177337 -0.383413
-0.001605 -0.119548 -0.610727
0.431443 0.275933 -0.664443
0.067306 -0.066466 -0.754570
0.424694 -0.032842 -0.655555
0.124582 -0.111276 -0.732110
0.490464 0.243469 -0.495281
0.381778 0.031777 -0.749362
0.072511 -0.153725 -0.409033
0.221414 0.096522 -0.839853
-0.052052 -0.000124 -0.454824
0.204335 0.362399 -0.479049
0.376038 0.164721 -0.776371
0.119060 -0.059324 -0.287434
0.287761 0.227216 -0.286749
0.352093 0.352162 -0.639516
-0.047770 0.021847 -0.438102
-0.075965 0.043306 -0.618256
0.226934 -0.177108 -0.380780
-0.014553 -0.117790 -0.550657
0.293107 -0.172893 -0.580118
0.067070 0.098711 -0.818304
-0.004605 -0.108919 -0.456418
0.435014 -0.071043 -0.395071
0.207729 -0.064873 -0.775531
0.001786 0.014071 -0.758256
0.135365 -0.187938 -0.430012
0.030032 0.288537 -0.544086
0.365535 -0.146087 -0.438995
0.493519 0.048920 -0.392392
0.258597 0.005313 -0.805944
0.343811 -0.047091 -0.729218
0.113302 0.266627 -0.375110
0.099296 0.324991 -0.684476
-0.068381 -0.016759 -0.537301
0.081083 0.204049 -0.803234
0.329819 -0.168511 -0.455134
0.336597 -0.047828 -0.272874
0.472545 -0.040396 -0.504199
-0.051945 -0.015307 -0.662680
0.047304 -0.143382 -0.640392
0.304762 0.366412 -0.481033
0.368873 -0.078288 -0.675039
-0.000929 -0.030565 -0.375841
0.074747 -0.007956 -0.296400
0.163956 -0.160756 -0.668004
0.310605 0.081424 -0.810858
0.011695 0.260844 -0.511434
0.033312 0.109347 -0.335960
-0.002771 0.216185 -0.460652
0.346113 -0.118250 -0.342340
0.147204 0.361726 -0.618467
0.336796 -0.166311 -0.505902
0.125565 0.211825 -0.818126
0.277886 -0.110734 -0.298415
-0.073539 0.114221 -0.591264
0.315961 0.248287 -0.786310
0.463986 0.022440 -0.641931
0.236020 -0.172516 -0.629245
0.333923 0.359322 -0.476130
-0.022760 0.220366 -0.656479
0.317727 0.162627 -0.811401
0.105006 0.340515 -0.535694
0.247242 -0.190335 -0.427107
0.206272 0.142499 -0.252108
0.421107 -0.102197 -0.524365
0.212003 0.182831 -0.836340
0.494208 0.123963 -0.380861
-0.030738 0.127090 -0.728678
0.378693 0.294307 -0.709721
0.418491 -0.101111 -0.427413
0.424319 0.298725 -0.430734
0.365023 0.141930 -0.263805
0.275432 -0.188817 -0.452961
0.261597 -0.190617 -0.442159
0.396039 0.014757 -0.727533
0.045604 -0.104045 -0.371077
0.144905 0.334283 -0.709148
0.139952 -0.129382 -0.327440
0.222705 0.249198 -0.810794
0.372183 -0.141417 -0.437537
-0.076322 0.013873 -0.569926
0.108710 0.255958 -0.367079
0.512608 0.057100 -0.511810
0.211861 -0.018629 -0.804895
0.297060 0.378129 -0.591568
0.038893 0.288466 -0.512523
0.502446 0.170496 -0.420366
0.043154 0.285498 -0.493509
0.515288 0.097750 -0.548153
0.281523 0.255326 -0.307462
-0.026744 0.064058 -0.740266
-0.030230 0.038233 -0.403290
0.068210 -0.110642 -0.355393
0.228338 0.201233 -0.830017
0.169759 0.005389 -0.819590
0.513144 0.143426 -0.566348
0.045867 0.299215 -0.529282
0.425191 0.257088 -0.370954
0.195465 -0.203921 -0.514898
0.485566 -0.014229 -0.521776
0.224941 -0.198827 -0.455342
0.158790 -0.193738 -0.434748
0.116430 0.219739 -0.811424
0.299597 0.126330 -0.243135
0.033116 0.051092 -0.793934
0.069329 0.303249 -0.484349
0.132556 0.187074 -0.298314
0.281072 0.199272 -0.269643
-0.078560 0.078039 -0.588105
0.459082 -0.060486 -0.504479
0.204139 -0.151101 -0.335916
0.425494 0.186423 -0.316439
0.335333 0.281446 -0.754532
0.186041 -0.189745 -0.599330
0.067460 -0.048291 -0.768423
0.303973 0.121365 -0.818716
0.461470 0.288839 -0.520474
0.283089 0.308959 -0.363155
-0.049979 0.182675 -0.561550
0.227968 0.140969 -0.840200
0.136515 0.041698 -0.257475
0.326709 -0.166607 -0.544243
0.421221 0.150077 -0.297854
0.000212 0.224444 -0.466605
0.030611 0.283719 -0.522009
0.465859 -0.047873 -0.447711
0.413982 0.078225 -0.281680
0.379499 0.215682 -0.303604
0.316962 0.280543 -0.765247
0.464702 0.041304 -0.340168
0.213169 -0.202808 -0.514845
0.125201 -0.125718 -0.330741
-0.004081 -0.079340 -0.680855
0.149827 0.362930 -0.615634
0.359498 0.243916 -0.314790
0.135760 0.270604 -0.363446
0.092325 -0.084357 -0.749857
0.415323 0.203502 -0.733571
0.072407 -0.094265 -0.337740
0.446980 -0.057483 -0.574078
0.456407 0.133605 -0.695675
0.053147 0.306367 -0.647009
0.344779 -0.045545 -0.729764
-0.037872 0.038974 -0.416659
0.429664 -0.019988 -0.326659
0.045513 -0.112624 -0.380160
-0.020573 -0.101012 -0.606618
0.163280 0.270015 -0.347072
0.020284 0.023578 -0.338125
0.310152 0.324409 -0.388844
0.365440 -0.116363 -0.358927
0.087555 0.332420 -0.546773
0.105116 -0.069316 -0.766864
0.405471 -0.112083 -0.547480
0.206655 0.097522 -0.841675
0.418989 0.281074 -0.677203
0.073552 -0.059910 -0.762725
0.033579 0.116102 -0.337981
0.282615 -0.106004 -0.295319
0.035960 0.145303 -0.348022
0.394449 0.088644 -0.757861
0.444797 0.058167 -0.693798
0.233560 0.143316 -0.839202
0.412046 -0.039825 -0.666204
0.194724 0.092088 -0.841961
0.505385 0.056994 -0.561786
0.503822 0.207853 -0.473797
0.149640 0.072675 -0.253681
-0.063048 0.007558 -0.650920
0.012835 -0.106996 -0.664571
-0.047568 -0.003986 -0.445483
0.399966 -0.004712 -0.711060
0.133513 0.269209 -0.363393
0.112793 -0.194482 -0.501372
0.262948 0.361929 -0.678277
0.271188 -0.016172 -0.243220
0.126643 0.199399 -0.823409
0.395606 0.242499 -0.735112
0.298528 0.364917 -0.473155
0.023263 -0.145355 -0.478347
0.124328 -0.178539 -0.620113
-0.064770 0.145230 -0.609085
0.213401 -0.173876 -0.635419
-0.062539 0.153694 -0.601051
0.439558 -0.082058 -0.442931
0.239145 -0.176681 -0.382583
0.209134 -0.102107 -0.742242
0.019715 0.224168 -0.738444
0.320786 0.140753 -0.811359
0.190380 0.146736 -0.842825
-0.025343 -0.062433 -0.667771
0.145301 -0.109741 -0.737125
0.128669 -0.173767 -0.634323
0.133184 -0.098829 -0.746788
0.160036 0.297248 -0.768585
0.507800 0.203220 -0.528450
0.301731 0.347168 -0.428086
0.214396 0.214963 -0.826816
0.481762 0.247881 -0.460494
0.490730 0.010388 -0.557290
0.016055 -0.138529 -0.476167
0.508965 0.088837 -0.421259
0.068763 -0.009158 -0.792085
0.119512 -0.127756 -0.711074
0.478049 0.007557 -0.595727
-0.040292 0.076150 -0.425398
0.132021 -0.196260 -0.554098
0.289207 -0.082936 -0.732312
0.436345 0.061850 -0.301612
0.031914 0.070790 -0.796438
0.453881 0.271825 -0.432425
0.146242 0.216888 -0.821250
0.391544 0.042675 -0.269793
0.505947 0.191334 -0.568238
0.289813 -0.158452 -0.367335
0.481825 0.163745 -0.651174
0.315800 0.331542 -0.402089
-0.048211 0.034808 -0.437484
0.231641 0.103837 -0.838947
0.094957 -0.036959 -0.786634
-0.016992 0.017966 -0.740197
0.459826 -0.021441 -0.375396
0.067793 0.271491 -0.741560
-0.078261 0.082912 -0.576074
0.110402 0.034193 -0.822838
0.081925 -0.184585 -0.528855
-0.032883 0.152839 -0.713001
-0.071295 0.039663 -0.640571
0.444925 -0.057413 -0.393506
-0.016796 0.238337 -0.625328
-0.033099 0.189730 -0.496633
-0.022125 0.124334 -0.742274
0.247519 -0.198271 -0.499295
-0.078696 0.066802 -0.557769
0.072200 0.167019 -0.326711
0.235900 0.333041 -0.735036
0.280299 0.276404 -0.326431
0.293957 0.312472 -0.368714
0.325261 0.284298 -0.340794
0.123226 0.124334 -0.837316
0.224189 0.369756 -0.657367
0.140200 0.337783 -0.467213
0.476627 -0.016091 -0.563071
0.427571 -0.040675 -0.642070
0.021184 0.007146 -0.771645
-0.066966 0.130190 -0.626682
0.194982 -0.155270 -0.342568
-0.061688 -0.029749 -0.609493
0.221561 -0.081695 -0.271350
0.168659 0.359349 -0.500132
-0.026235 -0.007493 -0.715656
0.405774 0.338261 -0.558136
0.208895 -0.173438 -0.371671
0.118941 0.128128 -0.836113
0.312852 -0.133599 -0.650994
0.023432 0.256202 -0.472208
0.431499 -0.030617 -0.647366
-0.061626 0.156956 -0.579050
0.239389 0.352572 -0.702238
0.405412 0.130967 -0.281623
0.058159 -0.143067 -0.652990
0.184077 0.098740 -0.246205
0.205091 -0.158100 -0.345724
0.302245 0.304355 -0.751394
0.230188 0.354284 -0.698887
0.376660 0.353785 -0.525789
0.085704 0.334518 -0.582759
0.152317 -0.122948 -0.722711
0.286304 0.366512 -0.657156
0.502357 0.163696 -0.415430
0.237729 -0.179730 -0.389445
0.060484 -0.120690 -0.373259
0.490900 0.227812 -0.584142
0.457957 -0.009601 -0.359921
-0.062817 -0.032539 -0.529005
0.444623 -0.047174 -0.599929
0.258516 -0.192171 -0.543102
0.249469 -0.128291 -0.310347
0.217242 -0.073678 -0.766779
0.421631 0.082907 -0.730281
0.327968 -0.153399 -0.590806
0.012155 0.244342 -0.474142
0.298357 0.030782 -0.236997
0.420077 0.261741 -0.694974
0.247736 -0.128653 -0.699906
0.393279 0.199502 -0.755616
0.204217 0.186191 -0.270825
-0.014116 0.244332 -0.576606
0.269840 0.014889 -0.235989
0.045130 -0.152542 -0.447433
0.002162 0.046380 -0.768847
0.192858 -0.042857 -0.255915
0.393588 0.048485 -0.270207
0.095400 -0.014848 -0.799175
0.114111 0.346667 -0.544659
0.254982 0.355956 -0.444264
-0.033890 0.081300 -0.414897
0.150040 0.364338 -0.597214
0.479356 0.237981 -0.433850
0.477405 0.069182 -0.646498
0.043486 0.302825 -0.559371
0.374958 0.067819 -0.768433
0.118623 -0.153331 -0.672321
0.466386 0.265193 -0.449318
0.104095 -0.020379 -0.798797
0.372452 0.349065 -0.486645
0.486746 0.099269 -0.364438
-0.047086 -0.071158 -0.571558
0.087789 0.286027 -0.424727
0.433911 0.316809 -0.523577
0.304124 0.372044 -0.623907
0.442212 0.244891 -0.377020
0.105770 -0.054586 -0.292238
0.403067 0.258649 -0.717109
0.044537 -0.149023 -0.439551
0.476712 0.056140 -0.354074
0.470601 0.086274 -0.665702
0.233648 -0.125672 -0.709063
0.313391 -0.170138 -0.557745
0.424662 0.310822 -0.459853
0.068236 0.076781 -0.298774
0.111906 -0.193023 -0.485729
0.211174 0.039856 -0.829550
0.388913 0.334502 -0.631324
0.257123 0.152817 -0.249228
0.178570 0.090672 -0.246368
0.071486 0.055008 -0.815243
0.159059 0.039184 -0.248985
-0.025229 0.126590 -0.418614
0.491269 0.130259 -0.634459
0.421485 0.125022 -0.737497
0.136447 0.300152 -0.400219
0.174330 0.279996 -0.787999
0.121570 0.338842 -0.494568
0.291082 0.287031 -0.771297
0.312442 0.064988 -0.237619
-0.004122 -0.067078 -0.695302
0.453862 0.042452 -0.672771
-0.040016 -0.082494 -0.529533
0.394419 -0.088572 -0.352317
0.175722 -0.203354 -0.484231
0.108233 0.200788 -0.816882
0.171635 0.348039 -0.696442
0.193572 0.320267 -0.749913
0.504485 0.032738 -0.526353
-0.007251 -0.124285 -0.517905
0.022619 -0.077118 -0.714043
0.352962 0.064255 -0.249115
-0.027776 0.043859 -0.735197
0.499981 0.107825 -0.609932
0.137419 0.201666 -0.825351
0.264495 -0.180898 -0.586086
-0.007028 -0.046703 -0.711593
0.122391 0.344680 -0.514042
0.226760 -0.084418 -0.755333
0.478509 0.252828 -0.460049
0.004244 -0.136523 -0.548296
0.385049 -0.136462 -0.494622
0.267314 -0.038667 -0.778185
0.456404 0.010881 -0.646141
0.182135 0.049991 -0.834650
0.414152 0.295739 -0.411200
0.163731 0.249267 -0.807939
0.073915 0.014639 -0.804530
0.129738 -0.115979 -0.319333
0.090189 0.335904 -0.562141
0.480170 -0.006119 -0.408405
0.143399 0.038719 -0.829936
0.088828 0.158207 -0.822264
0.162738 -0.195500 -0.439706
0.506504 0.088510 -0.582445
-0.059591 0.148139 -0.530571
-0.033822 0.026562 -0.410136
0.262225 -0.176093 -0.390647
-0.044597 0.184807 -0.531511
0.320151 0.149942 -0.253040
0.461220 0.289327 -0.524880
0.418189 0.200908 -0.318758
0.231114 -0.193137 -0.568743
-0.023844 -0.070242 -0.660055
0.385656 0.170259 -0.768273
-0.060794 0.159526 -0.584589
0.219751 0.095253 -0.839946
0.412383 -0.113552 -0.469275
0.376050 -0.019828 -0.723678
0.098867 0.323100 -0.688647
0.243011 0.058493 -0.232714
0.067740 0.320714 -0.626389
0.284748 -0.102771 -0.293035
0.241501 0.154991 -0.251056
0.034400 0.270934 -0.698658
0.276096 -0.057638 -0.260515
0.519730 0.113804 -0.478414
0.489948 0.196983 -0.619217
0.047387 -0.029616 -0.323550
0.280618 0.364568 -0.665473
0.312772 0.039582 -0.238792
-0.002971 0.133575 -0.387987
0.382098 0.349939 -0.585376
0.489991 0.184328 -0.399144
0.297202 0.081485 -0.816755
0.025503 0.218406 -0.750561
0.050421 -0.077384 -0.735402
0.277155 0.300553 -0.764271
0.425149 0.282701 -0.403986
0.301064 -0.156651 -0.371530
0.466647 0.271910 -0.588652
0.480719 0.005863 -0.394558
0.370765 -0.039869 -0.712546
0.017760 -0.125286 -0.637628
0.364709 0.219431 -0.771049
0.388199 -0.107294 -0.373608
0.318323 0.135840 -0.248494
0.144012 0.027160 -0.254978
0.391284 0.091630 -0.267435
0.147055 0.123161 -0.264572
0.437969 0.313269 -0.523923
-0.076615 0.023483 -0.595938
0.032422 -0.080661 -0.365174
0.428086 -0.028934 -0.331432
0.366132 -0.148820 -0.462344
0.413661 -0.093871 -0.579268
0.314343 0.169095 -0.812171
0.019933 -0.137654 -0.609967
0.156718 -0.179529 -0.627644
0.169442 -0.202884 -0.482868
0.234057 0.381247 -0.559219
0.422607 0.258265 -0.694675
-0.042524 0.086057 -0.717271
-0.060466 -0.004516 -0.648806
0.258190 0.331991 -0.396975
0.130586 -0.037844 -0.794370
0.038495 -0.082260 -0.359813
-0.010675 0.143467 -0.404883
0.059842 0.317527 -0.588695
0.340102 0.056175 -0.788717
-0.076218 0.079827 -0.616478
0.392050 0.212125 -0.308115
-0.019810 0.169525 -0.440445
0.192565 0.067943 -0.838331
0.148784 0.186314 -0.832574
0.391525 0.022721 -0.736229
0.424210 -0.087931 -0.405200
-0.033553 -0.086424 -0.599815
0.396817 0.329564 -0.460895
-0.048700 0.029961 -0.438984
0.091557 0.110121 -0.828485
0.067036 0.318137 -0.541729
0.256276 0.350231 -0.431211
0.207402 -0.013048 -0.808485
0.054000 0.294974 -0.684459
0.103522 0.165403 -0.303522
0.328283 0.038014 -0.242805
0.210332 0.111303 -0.242751
-0.038406 -0.084466 -0.525323
0.462470 -0.019845 -0.599451
-0.026822 0.060288 -0.739666
0.203494 0.311761 -0.379278
-0.007196 -0.123548 -0.512083
0.230681 0.154959 -0.838731
0.469764 -0.026156 -0.407417
0.429513 0.051065 -0.296921
0.422260 0.111014 -0.735277
0.319143 -0.154460 -0.382876
-0.036014 0.209228 -0.560402
0.319079 0.270693 -0.325593
0.236925 -0.111961 -0.293427
0.301329 0.000144 -0.786505
-0.009287 0.120026 -0.390194
0.021802 -0.037401 -0.351427
0.283047 -0.071093 -0.269341
0.053521 0.269752 -0.443529
0.375209 0.337732 -0.645556
0.176026 0.228934 -0.305779
0.300565 0.263724 -0.784168
0.462785 -0.051527 -0.443389
-0.062295 0.153986 -0.603758
0.230478 0.083608 -0.836703
0.264354 -0.189751 -0.548482
-0.071407 -0.006732 -0.543961
0.471796 -0.015430 -0.396638
0.425433 0.192785 -0.726166
0.382470 0.097293 -0.263176
0.445823 0.304210 -0.506442
0.400250 0.188319 -0.299438
0.214325 0.057321 -0.833945
0.495667 0.200596 -0.599768
0.200929 -0.142637 -0.694409
0.156021 0.234544 -0.814803
0.250983 0.181548 -0.831054
0.321393 -0.170705 -0.442822
0.127444 -0.095029 -0.749507
0.287245 0.378985 -0.537232
0.285119 -0.136609 -0.668044
0.197333 -0.186353 -0.607901
0.326672 0.372980 -0.573930
-0.056613 0.167847 -0.563573
0.506512 0.092029 -0.411922
0.467166 0.215859 -0.383253
0.374288 -0.115563 -0.368668
0.099473 0.120629 -0.288037
0.255145 -0.046348 -0.777278
0.284222 0.299607 -0.762889
0.367640 -0.134846 -0.573283
0.241606 0.376805 -0.516743
0.284623 -0.066108 -0.749990
0.498737 0.018008 -0.448042
0.212073 0.084401 -0.839511
0.226135 0.376571 -0.523268
0.084332 -0.159214 -0.406401
0.116773 0.341853 -0.513705
-0.002796 0.059179 -0.364811
0.136991 0.353403 -0.646669
-0.062945 0.153343 -0.581067
0.381988 0.033533 -0.265751
0.304487 0.210053 -0.807260
0.024159 -0.102126 -0.395069
0.148527 0.287767 -0.375303
0.103796 -0.155987 -0.661129
0.048193 0.236617 -0.405770
0.450960 0.178072 -0.698542
0.310317 0.107469 -0.814900
0.089148 -0.181715 -0.576776
0.115512 0.294449 -0.409275
0.384749 -0.016295 -0.718110
0.186871 0.354825 -0.687916
0.111501 -0.080085 -0.302307
0.123899 0.034651 -0.825852
-0.030291 0.070083 -0.406127
0.296710 0.045861 -0.235410
-0.015026 0.058098 -0.380964
0.366247 -0.113082 -0.354538
-0.050221 -0.052490 -0.616764
0.116485 0.290810 -0.403124
0.486463 0.016062 -0.581799
0.042407 0.170804 -0.355831
0.500029 0.147818 -0.400969
0.413430 0.317695 -0.626321
0.300716 0.050398 -0.235796
0.225256 -0.153764 -0.339406
0.246118 0.292963 -0.345479
0.405317 -0.109980 -0.555720
-0.068122 0.052852 -0.656245
-0.005958 -0.028010 -0.381586
0.070233 0.056360 -0.295089
0.425561 -0.058938 -0.357856
0.153414 0.289941 -0.773931
0.478314 0.178380 -0.373135
0.283891 0.291649 -0.770014
0.219780 -0.118539 -0.721865
-0.024197 0.029625 -0.735705
0.472172 -0.001620 -0.381124
0.349461 -0.159955 -0.481697
0.385489 0.246947 -0.741651
0.182831 0.090205 -0.245111
0.415648 0.073760 -0.733929
0.200818 0.265007 -0.327069
0.325443 -0.022892 -0.759828
0.406337 0.276275 -0.698531
-0.069462 -0.009413 -0.530647
0.085462 0.313161 -0.480694
0.298130 0.314507 -0.372033
-0.012828 -0.012020 -0.385231
0.091014 0.325325 -0.505636
0.488702 0.146262 -0.375986
0.136126 0.340870 -0.480208
0.074825 0.136549 -0.819884
0.301065 -0.182157 -0.511546
0.325982 0.012274 -0.246386
0.075330 -0.019798 -0.298852
0.488555 0.105454 -0.367834
0.036685 0.189609 -0.780133
0.334234 0.077111 -0.243101
0.367901 0.348747 -0.625904
0.500212 0.202536 -0.446274
0.226550 0.377714 -0.530274
-0.061982 0.031420 -0.668060
-0.004131 -0.044591 -0.716828
0.006006 0.238967 -0.698940
0.212043 0.014289 -0.820361
0.455000 0.138048 -0.697707
0.465453 0.227335 -0.391689
0.212797 0.245680 -0.307057
0.194401 0.307387 -0.765159
-0.017405 0.209459 -0.484298
0.233298 -0.163673 -0.649422
-0.024001 0.080877 -0.398285
0.373396 0.205421 -0.294416
0.463998 0.102465 -0.330156
0.104782 0.334613 -0.664549
-0.037164 0.040168 -0.720791
0.377114 0.326978 -0.665769
-0.039361 0.205923 -0.599814
0.478320 0.253310 -0.586686
0.344037 0.033845 -0.778200
0.028348 0.085432 -0.795269
0.319760 0.065062 -0.802603
0.055323 0.299321 -0.676127
0.213979 0.294893 -0.778738
0.283686 -0.141106 -0.661663
0.135276 -0.172294 -0.390489
0.296051 -0.115219 -0.691655
0.408337 0.214881 -0.736369
0.005300 0.184822 -0.411759
0.143802 0.192850 -0.829719
0.466150 0.168375 -0.678102
0.360358 -0.119663 -0.622314
0.041204 0.281749 -0.488631
0.441418 0.272507 -0.411246
0.230923 -0.047656 -0.253434
0.407511 0.247099 -0.720436
0.146293 0.323477 -0.430703
0.098396 -0.015453 -0.799766
0.178731 0.114712 -0.843846
0.293130 -0.007221 -0.786449
0.334398 0.311493 -0.377069
0.510785 0.178739 -0.556271
0.449871 -0.073077 -0.467977
0.324731 0.060826 -0.240396
0.410771 0.160124 -0.293861
0.372017 0.250245 -0.750789
0.265886 0.260480 -0.311832
0.240438 0.129271 -0.838386
0.429477 0.027294 -0.302840
0.142184 0.150774 -0.838748
0.053754 0.288861 -0.479516
0.171933 0.367390 -0.533399
0.408363 0.238258 -0.338031
0.037283 0.280175 -0.493619
0.330213 -0.137884 -0.624926
0.055394 -0.030807 -0.773772
0.044217 0.120869 -0.329616
0.312657 0.363445 -0.474933
0.000954 0.218431 -0.716695
0.330608 -0.169968 -0.482190
0.176963 0.137946 -0.843380
0.030739 -0.033807 -0.756536
-0.017221 0.240659 -0.585805
0.296132 0.000062 -0.788917
-0.070047 0.012930 -0.509444
0.177941 -0.060202 -0.782035
-0.052753 0.112346 -0.691361
-0.071775 0.001337 -0.531307
0.393678 0.096432 -0.269147
0.329315 0.279229 -0.759742
-0.007298 -0.005274 -0.740095
0.354737 0.362198 -0.590601
0.077611 0.132162 -0.821676
0.051127 -0.055739 -0.754265
0.189073 0.304891 -0.375745
0.066736 0.322389 -0.587214
0.397556 -0.124622 -0.451089
0.281205 0.150353 -0.248473
0.195937 -0.045159 -0.791135
0.456393 0.270267 -0.623066
0.192509 -0.120820 -0.724295
0.431831 0.028623 -0.695596
0.325107 0.003799 -0.248145
0.387354 0.231029 -0.748546
0.247139 -0.109563 -0.292052
0.150127 -0.029580 -0.801466
0.242393 0.239044 -0.296523
0.280606 -0.123061 -0.311689
0.107878 0.288601 -0.407772
0.031615 0.241987 -0.435271
-0.059299 0.158344 -0.620756
0.299167 -0.140097 -0.651572
-0.078194 0.030511 -0.582848
0.080287 0.177735 -0.813206
0.332792 0.072458 -0.242553
0.432041 -0.030264 -0.337652
0.032851 -0.157122 -0.561835
0.295392 -0.176185 -0.564363
0.178622 -0.144503 -0.331405
0.454548 0.061904 -0.321136
0.343506 0.227102 -0.296691
0.378774 0.061612 -0.763537
0.369786 0.339253 -0.649641
0.127617 -0.084060 -0.759672
0.429646 0.320815 -0.531710
0.185406 -0.022381 -0.250737
0.294855 -0.161734 -0.377769
0.428845 0.103765 -0.727032
0.118109 0.349207 -0.549006
0.053742 0.093865 -0.313341
0.220822 0.279400 -0.791419
0.399381 0.342317 -0.559404
0.403025 0.008698 -0.716798
0.019777 -0.142748 -0.479628
0.228437 0.340003 -0.416245
0.456846 -0.035948 -0.387496
0.488577 -0.008092 -0.521993
0.124156 0.175640 -0.296586
0.392880 0.158076 -0.282144
0.479387 0.027350 -0.372857
0.313387 -0.153837 -0.375846
0.279429 -0.008933 -0.242028
0.443256 -0.036199 -0.619403
0.397620 -0.121517 -0.536188
0.377073 0.047036 -0.759722
0.085735 -0.180785 -0.575551
0.252834 -0.171264 -0.375079
0.220596 0.360380 -0.684198
0.353931 0.272014 -0.749706
0.284291 0.246580 -0.799766
0.119077 -0.191174 -0.459995
0.013097 0.245399 -0.474017
-0.030968 0.217789 -0.561211
0.319997 0.345823 -0.431291
0.128535 0.171761 -0.292257
0.507311 0.205810 -0.520646
0.085577 0.134207 -0.824825
0.502282 0.064746 -0.408720
-0.025618 0.176837 -0.709475
0.301878 -0.036703 -0.255705
0.129302 -0.013430 -0.267004
0.475680 -0.027639 -0.433953
0.157319 0.276524 -0.787164
0.322326 0.230220 -0.791810
-0.001540 0.172846 -0.749535
0.385473 -0.081164 -0.651415
0.041656 0.013721 -0.318683
0.235201 0.255182 -0.806205
0.179053 0.098300 -0.842955
0.478367 -0.004609 -0.577625
0.182420 -0.139101 -0.701835
-0.022882 0.113128 -0.407799
0.159496 0.365493 -0.620189
0.176782 0.372478 -0.589418
0.105383 0.048014 -0.272583
0.451859 0.197159 -0.691368
0.014369 0.021827 -0.344546
-0.010250 0.121284 -0.392161
-0.064189 0.110559 -0.503442
0.496634 0.192176 -0.422264
0.484789 0.253195 -0.494022
0.143139 -0.171419 -0.384417
0.506889 0.113608 -0.411387
0.325694 -0.043689 -0.266246
0.099517 -0.190847 -0.526079
0.387536 0.050408 -0.752334
0.164735 0.243528 -0.321861
-0.000412 -0.032678 -0.730179
0.111696 -0.193621 -0.492784
0.094658 0.334907 -0.641026
0.407206 0.272902 -0.371855
0.250813 0.127704 -0.836184
0.467727 0.010221 -0.623477
0.158645 0.361797 -0.641533
0.249763 -0.145433 -0.330960
0.013621 -0.142818 -0.566041
0.353694 -0.079538 -0.304543
-0.076782 0.093622 -0.567370
0.133057 -0.188804 -0.434863
-0.047090 -0.070128 -0.578643
0.512090 0.108333 -0.429696
-0.070784 0.058266 -0.647408
0.380272 -0.049312 -0.299587
0.259175 -0.088913 -0.277203
0.117884 0.246894 -0.796170
0.075444 -0.088916 -0.331393
0.243501 -0.120796 -0.711704
0.260511 -0.174797 -0.386490
0.364732 -0.026438 -0.275880
0.438312 0.000976 -0.323840
0.156690 -0.158015 -0.672412
0.197840 0.179332 -0.837780
0.024765 0.109725 -0.344708
0.057715 0.225733 -0.775475
0.265797 -0.122163 -0.306813
0.138059 -0.174484 -0.393371
0.079703 0.315176 -0.496694
0.055774 0.118767 -0.812054
0.303058 0.049611 -0.236218
0.414528 0.329069 -0.583645
0.269692 0.278221 -0.328166
-0.002077 -0.032205 -0.378116
0.165513 0.309568 -0.394305
0.214510 0.156570 -0.255481
0.149205 0.116071 -0.261739
0.518900 0.146969 -0.485816
0.345982 0.219106 -0.292190
0.201221 -0.011115 -0.244731
0.288861 0.221932 -0.283352
-0.041983 0.201372 -0.593648
0.428795 0.285215 -0.412859
0.284749 0.322857 -0.382579
0.375505 -0.121301 -0.381791
0.391272 0.259006 -0.344739
0.434479 0.312514 -0.494661
-0.004832 0.034535 -0.366419
0.022759 0.240007 -0.725697
0.114058 0.096350 -0.273492
0.317365 0.287235 -0.342075
0.296945 -0.114379 -0.308133
0.186463 -0.154253 -0.678461
-0.019593 0.027419 -0.740654
