ply
format ascii 1.0
element vertex 1641
property float x
property float y
property float z
end_header
0.395250 -0.075395 -0.479697
-0.112262 -0.241165 -0.419767
0.180231 -0.099658 -0.472110
0.308240 0.033208 -0.386269
-0.049746 -0.342419 -0.105999
0.105845 -0.208965 -0.107878
0.079208 -0.300238 -0.686605
-0.224168 -0.268719 -0.173845
-0.029009 -0.449102 -0.147001
0.035154 -0.165202 -0.439029
0.152030 -0.515142 -0.529806
0.401028 -0.489456 -0.185260
0.422771 -0.666433 -0.232200
0.312601 -0.735206 -0.146014
0.165885 -0.625707 -0.127000
0.389439 -0.417249 -0.213706
-0.181379 -0.155902 -0.225422
0.214225 -0.109203 -0.199895
0.421271 -0.150397 -0.539950
0.432696 -0.431566 -0.367612
-0.038204 -0.366595 -0.680238
-0.102239 -0.434037 -0.218427
0.220208 0.007578 -0.344517
-0.086404 -0.034112 -0.126150
0.222348 -0.603543 -0.066022
0.398154 -0.557788 -0.136957
0.433524 -0.463179 -0.347027
0.209404 -0.488711 -0.066686
-0.085198 -0.102003 -0.231341
0.247053 -0.680903 -0.095008
0.421007 -0.804054 -0.073250
-0.077650 -0.479973 -0.342057
-0.150831 -0.341843 -0.538604
0.391111 -0.396572 -0.547625
0.176382 -0.488263 -0.577272
0.234284 -0.680912 -0.117037
0.168694 -0.124179 -0.499082
0.397798 -0.354639 -0.272915
0.353072 -0.158066 -0.720777
0.321762 -0.100931 -0.604361
-0.044827 -0.499867 -0.358885
0.367907 -0.384177 -0.597401
-0.002183 -0.437067 -0.117889
0.246236 -0.104387 -0.540128
0.219677 -0.641660 -0.083986
0.433227 -0.552389 -0.299464
0.110932 -0.326811 -0.756549
0.259525 -0.673423 -0.074704
-0.030464 -0.201257 -0.433893
-0.217543 -0.384153 -0.367456
0.401934 -0.798658 -0.056712
0.085514 -0.087931 -0.137423
0.260050 -0.555062 -0.060969
0.350497 -0.517610 -0.473705
0.308691 -0.187840 -0.245615
0.428165 -0.341361 -0.397371
0.279958 -0.050177 -0.488065
0.010485 -0.458457 -0.121476
0.314236 -0.618471 -0.365808
0.259920 -0.702750 -0.121997
0.433440 -0.700318 -0.100919
0.276687 -0.687756 -0.071169
0.324321 -0.738671 -0.153155
0.164260 -0.522529 -0.069987
0.153127 -0.168264 -0.552335
0.400435 -0.781205 -0.109620
0.329399 -0.388143 -0.157204
0.418295 -0.591428 -0.311847
0.423377 -0.665188 -0.106101
0.115428 -0.339759 -0.780537
-0.150725 -0.083791 -0.143094
-0.263671 -0.180654 -0.187606
0.399494 -0.148328 -0.434580
0.031069 -0.200694 -0.489679
0.385983 -0.325188 -0.269883
-0.043432 -0.443242 -0.155530
0.384178 -0.403719 -0.552924
0.127430 -0.616259 -0.211337
0.174027 0.043090 -0.247558
0.432123 -0.410653 -0.377259
-0.029104 -0.282123 -0.559116
-0.244077 -0.365796 -0.489478
-0.045554 -0.501211 -0.309447
0.283429 -0.034702 -0.467537
-0.003868 -0.394821 -0.707416
0.420152 -0.455661 -0.426557
0.307634 -0.204639 -0.234905
0.089407 -0.549763 -0.124960
0.225011 -0.209505 -0.161962
0.429117 -0.320336 -0.445344
0.143800 -0.512694 -0.074283
0.398107 -0.778543 -0.041861
0.349419 -0.472730 -0.525378
0.275106 -0.370177 -0.704747
0.345233 -0.620514 -0.064423
-0.286031 -0.260078 -0.222563
0.021796 -0.014899 -0.196308
0.427022 -0.714403 -0.178091
0.408030 -0.558810 -0.361782
0.434986 -0.512942 -0.308579
0.444608 -0.794163 -0.066602
0.283252 -0.542471 -0.067479
0.413450 -0.273288 -0.379821
0.416371 -0.455989 -0.437480
0.277734 -0.678875 -0.261286
0.247482 -0.056966 -0.254037
0.086950 -0.136811 -0.122664
-0.018123 -0.519189 -0.320649
0.402716 -0.022702 -0.550733
0.328065 -0.217500 -0.788870
0.180859 -0.166748 -0.153273
0.249410 -0.257804 -0.778245
0.320005 0.011592 -0.430239
0.059138 -0.069039 -0.313686
0.090154 -0.339241 -0.079675
-0.090384 -0.050610 -0.147778
0.103781 -0.373823 -0.759040
0.219605 -0.249686 -0.738361
0.438847 -0.823454 -0.038956
0.378601 -0.737896 -0.043821
0.444082 -0.772637 -0.080822
0.251915 0.028927 -0.340978
0.411504 -0.238636 -0.401611
0.242289 -0.205539 -0.175702
0.432418 -0.805021 -0.038224
0.443619 -0.794993 -0.070585
0.188488 -0.620887 -0.332840
0.162562 -0.014185 -0.324809
0.386347 -0.774180 -0.045659
-0.310733 -0.296925 -0.322529
0.296047 -0.696388 -0.234070
0.413381 -0.575159 -0.336585
-0.054982 -0.205722 -0.418165
0.178567 -0.025002 -0.356127
-0.038154 -0.292191 -0.093460
0.425019 -0.813174 -0.054805
-0.110840 -0.431672 -0.228687
0.081328 -0.097595 -0.377893
0.155375 -0.234399 -0.655792
0.276304 -0.713766 -0.114193
0.345250 -0.724491 -0.048820
0.192062 -0.494940 -0.566395
0.380456 -0.689928 -0.055462
0.401245 -0.218272 -0.683260
-0.124573 -0.223910 -0.381980
0.236166 -0.047242 -0.443249
-0.103463 -0.346197 -0.135175
-0.029591 -0.474161 -0.174984
0.244157 -0.685604 -0.210058
0.300745 -0.716466 -0.189967
0.429603 -0.355735 -0.443558
-0.068872 -0.406591 -0.147683
0.424681 -0.215056 -0.566005
0.393031 -0.261904 -0.329801
-0.132002 -0.135892 -0.101930
0.401276 -0.550189 -0.381191
0.425223 -0.782757 -0.042562
0.049977 -0.533737 -0.152133
0.062527 -0.174880 -0.479066
0.133758 -0.620068 -0.200197
-0.114080 -0.051160 -0.126805
0.033720 -0.082284 -0.121923
0.201700 -0.661755 -0.141006
-0.228388 -0.159265 -0.129222
0.416117 -0.477615 -0.224926
-0.055739 -0.450534 -0.177157
0.004339 0.002112 -0.154159
0.089596 -0.585104 -0.304186
0.440899 -0.801096 -0.045572
0.103742 0.028185 -0.205701
-0.185438 -0.188562 -0.271755
0.405174 -0.783803 -0.106012
0.118731 -0.160378 -0.126680
0.330945 -0.737002 -0.063145
-0.184266 -0.335904 -0.193377
0.180696 -0.627528 -0.109227
0.009015 -0.459491 -0.123196
0.116350 -0.571989 -0.119408
0.253838 -0.662592 -0.282712
-0.216757 -0.378151 -0.328326
-0.187414 -0.384589 -0.566857
-0.164073 -0.159331 -0.246611
-0.132821 -0.431301 -0.482614
0.370293 -0.509202 -0.463777
0.426306 -0.416974 -0.309805
0.286882 -0.604670 -0.390782
-0.163786 -0.298231 -0.459818
0.010141 -0.067905 -0.266839
0.432937 -0.620233 -0.249215
0.444698 -0.797198 -0.064065
0.409794 -0.618965 -0.115193
-0.111898 -0.384639 -0.640056
-0.146510 -0.434127 -0.385436
0.416160 -0.791089 -0.039136
0.402023 -0.450115 -0.213931
0.366818 -0.598824 -0.084400
0.422849 -0.342323 -0.360078
0.319405 -0.722940 -0.189823
0.268620 -0.247257 -0.779761
-0.115660 -0.293111 -0.119894
0.419719 -0.095894 -0.585312
0.067637 -0.274113 -0.086837
0.410640 -0.646826 -0.269837
-0.292492 -0.209771 -0.186657
0.383050 -0.779493 -0.103424
0.434604 -0.509906 -0.314989
0.237805 -0.078519 -0.492708
-0.105852 -0.415344 -0.588313
-0.272117 -0.178315 -0.176246
0.336467 -0.446804 -0.566682
0.273243 -0.202557 -0.715491
0.185397 -0.497265 -0.065871
0.135679 -0.548000 -0.088054
0.441723 -0.788107 -0.055558
0.426716 -0.362903 -0.363011
-0.228305 -0.180091 -0.134987
0.186139 -0.316516 -0.810006
0.400802 -0.227329 -0.676921
0.242274 -0.151488 -0.608688
0.199586 -0.593992 -0.397511
0.276879 -0.124012 -0.598425
0.043871 -0.363674 -0.082285
0.060748 -0.057620 -0.297662
0.107280 -0.584493 -0.344150
0.421610 -0.191783 -0.498111
0.319948 -0.232738 -0.804757
0.039212 -0.076003 -0.306017
-0.173005 -0.286614 -0.433520
-0.008345 -0.263472 -0.087891
0.040764 -0.206531 -0.507553
0.322071 -0.532184 -0.476684
0.359197 -0.579406 -0.394803
0.279868 -0.510224 -0.525580
0.348890 -0.763149 -0.083117
0.312418 -0.336289 -0.168550
0.288736 -0.392954 -0.123380
0.258289 -0.057622 -0.479530
-0.079828 -0.354612 -0.124977
0.030701 -0.187232 -0.468702
0.442482 -0.813083 -0.040468
0.263207 -0.176571 -0.206480
0.432456 -0.610155 -0.259032
0.159995 -0.312580 -0.095036
0.024983 -0.514273 -0.454236
0.331509 -0.280956 -0.752166
0.208270 -0.531634 -0.063039
0.004561 -0.218333 -0.492316
0.009990 -0.521362 -0.407366
0.411011 -0.098944 -0.683481
0.020883 -0.502402 -0.483521
0.429762 -0.811885 -0.037880
-0.099512 -0.090454 -0.101930
0.106757 -0.593167 -0.168908
0.138175 -0.557465 -0.443101
0.337049 -0.347581 -0.674928
0.348332 -0.739773 -0.170345
0.422730 -0.678262 -0.220667
0.394050 -0.214955 -0.367330
0.216349 -0.528802 -0.062706
0.403967 -0.110805 -0.480659
0.312970 -0.271024 -0.203733
-0.187085 -0.396024 -0.514267
0.436726 -0.576629 -0.259280
-0.248286 -0.198254 -0.228753
0.428027 -0.462052 -0.391191
0.278186 -0.690576 -0.071991
0.012630 -0.362440 -0.720670
0.225406 -0.069812 -0.467944
0.175439 -0.070002 -0.422234
0.262968 -0.174991 -0.663770
-0.124412 -0.268962 -0.451195
0.344755 -0.500295 -0.114036
-0.304454 -0.287519 -0.313890
0.366546 -0.743337 -0.045535
0.412306 -0.438014 -0.463930
-0.134667 -0.371618 -0.599131
0.418916 -0.810239 -0.050143
-0.150303 -0.302299 -0.142232
0.428770 -0.801829 -0.038244
0.434222 -0.522512 -0.312328
0.422490 -0.810537 -0.042250
0.401661 -0.499782 -0.429858
-0.215976 -0.255052 -0.159596
0.397329 -0.073408 -0.488105
0.266883 -0.697306 -0.205651
0.339400 -0.531923 -0.095702
-0.049475 -0.498731 -0.320032
-0.030381 -0.004795 -0.132781
0.301970 -0.046750 -0.503077
0.228725 -0.370689 -0.730989
0.393381 -0.736418 -0.178792
-0.149991 -0.428007 -0.442215
0.438777 -0.715927 -0.103316
0.069043 -0.454814 -0.618090
0.443936 -0.825807 -0.035941
0.086734 -0.219731 -0.570112
-0.081424 -0.467999 -0.435312
0.370180 -0.775891 -0.065906
0.220119 -0.383428 -0.093405
-0.103155 -0.034996 -0.108313
0.089280 -0.346454 -0.766729
0.239430 -0.562659 -0.458712
0.092293 -0.124087 -0.428602
0.348112 -0.757183 -0.127000
0.444037 -0.813718 -0.042193
0.398716 -0.649944 -0.280112
0.338081 -0.689975 -0.048255
0.037187 0.020316 -0.156491
0.293859 -0.229451 -0.775701
0.045862 -0.537097 -0.163052
0.436601 -0.685062 -0.183993
0.139668 -0.585841 -0.109342
0.422647 -0.691952 -0.207129
0.421529 -0.095355 -0.647406
-0.013571 -0.091912 -0.281813
0.427263 -0.623877 -0.142841
0.398698 -0.544262 -0.391017
0.410502 -0.775549 -0.119093
0.003480 -0.530314 -0.343695
0.417545 -0.806964 -0.043836
0.277203 -0.147232 -0.634320
0.379351 -0.575331 -0.382003
0.204777 -0.502345 -0.554182
0.195184 -0.654463 -0.134210
0.436590 -0.733952 -0.083484
-0.015566 -0.180126 -0.415214
0.444279 -0.780327 -0.076830
0.037273 0.002953 -0.183189
0.050363 -0.379308 -0.748434
0.396517 -0.103438 -0.677027
0.301409 0.029386 -0.385840
0.126253 -0.357907 -0.079228
-0.267918 -0.249791 -0.289688
0.412595 -0.733167 -0.055520
0.369310 -0.484383 -0.145155
0.087137 -0.205970 -0.103761
-0.016329 -0.063171 -0.114745
0.115351 -0.344987 -0.788482
-0.268057 -0.197862 -0.162986
0.256245 -0.515418 -0.526301
0.085253 -0.548291 -0.127799
-0.205950 -0.099061 -0.112815
0.425453 -0.561837 -0.321321
0.376094 -0.607572 -0.348576
0.328927 -0.731872 -0.175870
-0.098076 -0.126176 -0.256542
0.372649 -0.134779 -0.703101
-0.248874 -0.235618 -0.285493
-0.056892 -0.171282 -0.363609
0.301852 -0.525988 -0.495283
0.404193 -0.533052 -0.393321
0.127888 0.012814 -0.251496
0.427783 -0.722878 -0.075797
-0.188315 -0.390103 -0.540781
0.074541 -0.523010 -0.115712
0.138317 -0.590002 -0.366369
0.408233 -0.701739 -0.213053
0.103106 -0.514185 -0.091691
0.108602 0.019143 -0.224038
0.002595 -0.481769 -0.520523
0.445354 -0.817387 -0.042717
0.022507 -0.145567 -0.104194
0.240124 -0.392449 -0.697406
0.342304 -0.752085 -0.067516
0.208163 -0.000958 -0.346513
0.407606 -0.603135 -0.318659
0.131755 -0.585268 -0.116849
-0.104242 -0.450372 -0.463232
0.383182 -0.766262 -0.132300
0.200899 -0.226123 -0.685016
0.063177 -0.573041 -0.237952
0.426923 -0.256199 -0.511412
0.223554 -0.186446 -0.645046
0.219957 -0.673345 -0.129929
0.151279 -0.110029 -0.159624
-0.102662 -0.268972 -0.471235
-0.190991 -0.392679 -0.304966
0.416071 -0.804406 -0.042709
-0.014284 -0.332998 -0.650755
0.445605 -0.823147 -0.040923
0.374891 -0.265860 -0.290102
0.358536 -0.039358 -0.415786
0.209139 -0.504751 -0.550146
-0.064399 -0.244457 -0.468878
0.196767 -0.438498 -0.650040
0.358571 -0.617952 -0.348564
0.020941 -0.535875 -0.368311
0.194151 0.009078 -0.318227
-0.092846 -0.251270 -0.453133
0.370548 -0.642821 -0.310570
0.149259 -0.445876 -0.070321
0.422383 -0.775816 -0.043752
0.249699 -0.360424 -0.732829
0.433546 -0.651844 -0.138171
0.251813 -0.334893 -0.763012
-0.077318 -0.464555 -0.462461
0.398057 -0.783095 -0.105274
0.390989 -0.787912 -0.088334
0.437732 -0.777321 -0.098991
0.213744 -0.177458 -0.622235
-0.028024 -0.074619 -0.241996
0.008455 -0.184168 -0.443524
-0.215253 -0.384220 -0.486359
0.438525 -0.758402 -0.115584
0.268143 -0.032239 -0.449689
-0.068434 -0.216414 -0.422173
0.399499 -0.616807 -0.103762
0.397950 -0.448533 -0.485555
0.124591 -0.513362 -0.525616
0.298277 -0.177801 -0.700586
0.011316 -0.017653 -0.190881
-0.122139 -0.232580 -0.397512
-0.135930 -0.428339 -0.274677
0.148385 -0.142145 -0.507927
0.411845 -0.451614 -0.233877
0.182436 -0.650251 -0.223205
0.213568 -0.094076 -0.494244
0.420567 -0.098531 -0.593237
0.308290 -0.662719 -0.051477
0.141996 -0.512185 -0.074755
-0.193588 -0.388735 -0.534023
0.045464 -0.323918 -0.691841
0.442674 -0.746946 -0.093663
0.166689 -0.203434 -0.618737
0.398485 -0.618381 -0.314680
0.385623 -0.781148 -0.101553
0.082527 -0.261236 -0.629867
0.177685 -0.049017 -0.392131
0.236674 -0.074349 -0.485273
0.298303 -0.189370 -0.718346
0.375608 -0.262720 -0.293533
-0.123481 -0.445749 -0.424662
0.314638 -0.632651 -0.345219
0.080482 -0.075592 -0.343382
0.435393 -0.661906 -0.136011
0.246191 -0.242599 -0.751972
0.401320 -0.791678 -0.088717
0.333074 -0.569381 -0.423881
0.096666 -0.502032 -0.537014
0.236497 -0.456961 -0.613296
0.312705 -0.575416 -0.066869
0.421223 -0.080618 -0.644459
0.027628 -0.363235 -0.735696
0.275856 -0.075235 -0.272880
0.243272 -0.210921 -0.700721
0.216900 -0.012620 -0.372436
-0.215730 -0.107383 -0.119414
0.030388 -0.077389 -0.300018
-0.028537 -0.193996 -0.424535
-0.196331 -0.246909 -0.143545
-0.177899 -0.399516 -0.291983
0.368125 -0.726904 -0.197078
-0.289844 -0.327043 -0.387933
0.441541 -0.696054 -0.144983
-0.054118 -0.399689 -0.672845
0.386254 -0.757331 -0.042559
-0.020861 -0.159762 -0.379118
0.190989 -0.611675 -0.356250
0.275456 -0.690965 -0.232388
0.335614 -0.754838 -0.097209
0.181486 -0.635830 -0.119941
-0.049071 -0.023298 -0.117218
0.024655 -0.391800 -0.721809
-0.058553 -0.162343 -0.348376
0.054610 -0.268355 -0.086707
0.241750 -0.422672 -0.088922
0.042972 -0.557447 -0.229046
0.285360 -0.272451 -0.810378
0.325393 -0.171893 -0.716492
0.262312 -0.348032 -0.740160
-0.041999 -0.357249 -0.662417
0.438683 -0.753248 -0.074116
-0.071801 -0.142347 -0.305523
0.352524 -0.759530 -0.064280
0.384070 -0.147549 -0.733192
0.168250 -0.235379 -0.669147
0.381596 -0.588264 -0.365445
0.352857 -0.650521 -0.309569
0.423579 -0.298621 -0.530185
-0.014488 -0.463550 -0.551762
0.281379 -0.695815 -0.073361
0.106842 -0.388851 -0.735481
0.147371 -0.183628 -0.570589
0.371612 -0.507047 -0.464628
0.001637 -0.167004 -0.410934
0.444094 -0.777524 -0.073641
0.106541 -0.004164 -0.177193
0.442999 -0.769715 -0.092815
0.425823 -0.551508 -0.194399
-0.093014 -0.066269 -0.104760
0.316255 -0.673886 -0.050585
0.264803 -0.013578 -0.418005
0.083056 -0.307569 -0.083201
0.412367 -0.392460 -0.280142
0.237928 -0.661916 -0.272790
0.300821 -0.691392 -0.057939
0.217192 -0.554910 -0.470753
0.412506 -0.583534 -0.142050
0.216269 -0.017503 -0.246138
0.249992 -0.625244 -0.061019
0.407867 -0.279386 -0.611774
0.384889 -0.638881 -0.305101
0.103613 -0.103330 -0.139556
0.397722 -0.119766 -0.703167
0.413395 -0.767851 -0.129110
0.234908 -0.414567 -0.670893
0.045619 -0.526178 -0.443931
-0.073939 -0.390533 -0.140481
-0.138306 -0.242927 -0.398491
-0.058396 -0.308913 -0.573219
0.389888 -0.743374 -0.169834
0.061613 -0.106901 -0.374009
0.297365 -0.477674 -0.093731
0.088473 -0.015149 -0.258077
0.223654 -0.590429 -0.063207
-0.192462 -0.351797 -0.515537
-0.175396 -0.080556 -0.115420
0.214848 -0.598768 -0.067701
-0.065073 -0.102454 -0.250559
0.061446 -0.423648 -0.673175
0.047229 -0.533996 -0.156229
-0.195590 -0.188092 -0.261688
0.071141 -0.455640 -0.087490
0.117323 -0.532341 -0.091560
0.444981 -0.805326 -0.051878
0.294741 -0.395362 -0.126276
0.004572 -0.060924 -0.251010
0.302553 -0.683048 -0.054903
-0.140014 -0.059948 -0.116401
0.306168 -0.476288 -0.555376
0.212498 -0.668039 -0.132367
0.378391 -0.453646 -0.174112
0.162302 -0.423080 -0.072588
0.397146 -0.594672 -0.341407
0.113624 -0.185270 -0.542036
0.431206 -0.808214 -0.037511
0.204601 -0.321930 -0.805550
-0.151609 -0.077407 -0.104571
0.101393 -0.472390 -0.080416
0.274936 -0.058341 -0.495957
-0.117333 -0.204060 -0.358215
0.317978 -0.069211 -0.552249
0.397914 -0.763071 -0.139365
-0.223127 -0.382873 -0.441323
0.329117 -0.750289 -0.096549
0.184453 -0.223036 -0.665142
0.224340 -0.634732 -0.325914
0.437794 -0.819452 -0.049594
0.338616 -0.603130 -0.377990
0.282175 -0.003604 -0.321236
0.443400 -0.775513 -0.070826
0.277878 -0.695156 -0.223996
-0.144295 -0.076918 -0.138476
0.439276 -0.804478 -0.041953
0.153087 -0.073952 -0.175107
-0.024503 -0.045314 -0.200311
0.387323 -0.730714 -0.045853
0.229726 -0.013000 -0.260442
0.375810 -0.550481 -0.412966
-0.191432 -0.336114 -0.492442
0.205560 -0.254045 -0.732112
-0.005606 -0.301756 -0.087809
-0.123313 -0.363440 -0.597047
0.256531 -0.557243 -0.465688
0.287305 -0.152295 -0.651381
0.334395 -0.693695 -0.048484
0.144572 -0.247317 -0.665650
0.029743 -0.492117 -0.129957
0.128197 -0.267506 -0.681526
0.266482 -0.100452 -0.552734
0.417873 -0.678864 -0.227155
-0.129798 -0.445063 -0.353342
0.117924 -0.533532 -0.482801
0.406255 -0.423898 -0.241344
0.216636 -0.647051 -0.091105
0.421870 -0.161621 -0.624716
0.414269 -0.598547 -0.135046
0.408360 -0.462077 -0.451868
0.436093 -0.810316 -0.063490
0.321468 -0.313773 -0.728729
0.324857 -0.487117 -0.105795
0.178741 -0.271738 -0.113644
0.398661 -0.159623 -0.422999
0.244736 -0.227326 -0.727218
0.350211 -0.073420 -0.376480
-0.038887 -0.475786 -0.489091
0.431007 -0.790734 -0.091095
0.227987 -0.675102 -0.220391
0.442065 -0.715019 -0.132466
0.109374 -0.412261 -0.074319
0.436489 -0.735404 -0.082211
0.441226 -0.774353 -0.064506
0.295250 -0.580580 -0.061094
0.190233 -0.658169 -0.182536
0.423868 -0.225345 -0.571661
0.376598 -0.262086 -0.702282
0.429348 -0.508802 -0.350299
0.376424 -0.535622 -0.124277
0.372825 -0.142253 -0.372109
0.403251 -0.707725 -0.060538
-0.160931 -0.270221 -0.419505
-0.058110 -0.358492 -0.649490
0.169618 -0.147206 -0.535233
0.354139 -0.729996 -0.047061
0.401529 -0.125684 -0.459600
0.308245 0.026134 -0.397119
0.042178 -0.445962 -0.097042
0.254096 -0.596342 -0.404926
-0.039187 -0.455429 -0.549337
0.179404 -0.126488 -0.168896
0.117217 -0.603425 -0.174584
-0.166330 -0.365117 -0.205654
0.439695 -0.823076 -0.043241
0.416700 -0.202428 -0.455982
0.095361 -0.234701 -0.601004
0.346119 -0.757714 -0.071507
0.430942 -0.818191 -0.043069
0.372091 -0.236290 -0.735215
0.397323 -0.754930 -0.151606
0.124722 -0.163561 -0.518974
-0.058498 -0.492516 -0.339926
0.058270 -0.216420 -0.538830
-0.133797 -0.327567 -0.532400
0.422732 -0.616171 -0.279825
0.025218 -0.015754 -0.200770
0.175758 0.021873 -0.281678
-0.029860 -0.230349 -0.479048
0.374112 -0.201784 -0.332756
0.441053 -0.681409 -0.157281
0.173863 -0.482078 -0.587110
0.241617 -0.647480 -0.308290
0.409687 -0.762014 -0.043468
0.195636 -0.124979 -0.525112
0.258882 -0.574556 -0.058485
0.362073 -0.734078 -0.045601
0.346964 -0.758829 -0.072406
0.053363 -0.018426 -0.147629
0.355310 -0.121415 -0.353055
0.373024 -0.471508 -0.500620
0.293167 -0.210882 -0.746596
-0.246664 -0.288802 -0.369061
0.429091 -0.741128 -0.147983
0.427861 -0.523095 -0.224162
-0.014381 -0.497531 -0.189722
-0.069262 -0.367612 -0.653204
0.321611 -0.632372 -0.054898
0.100483 -0.107623 -0.410902
0.196195 -0.657795 -0.224114
0.367785 -0.493187 -0.483834
0.247102 -0.679382 -0.235055
0.339346 -0.541237 -0.454588
0.398485 -0.773251 -0.041200
0.385973 -0.724003 -0.198234
0.417413 -0.522855 -0.194320
-0.191618 -0.243534 -0.350341
0.324940 -0.148097 -0.679595
0.056508 -0.067901 -0.309520
0.308932 -0.376764 -0.145345
0.091166 -0.561036 -0.135606
-0.124936 -0.343004 -0.564223
0.180140 -0.538989 -0.493278
0.269755 0.032781 -0.351494
-0.052873 -0.104677 -0.265199
-0.132767 -0.319241 -0.520583
0.425017 -0.696563 -0.088329
0.433444 -0.537685 -0.308367
0.321326 -0.674808 -0.049997
0.176137 -0.169564 -0.575511
0.246551 -0.348288 -0.749767
0.441512 -0.712145 -0.140450
0.415300 -0.309796 -0.561517
0.236998 -0.667124 -0.090165
0.147233 -0.497897 -0.559095
-0.003590 -0.319716 -0.640239
0.222551 -0.517053 -0.530159
-0.178214 -0.305511 -0.457694
0.434342 -0.655555 -0.137693
0.401039 -0.684753 -0.238709
0.309073 -0.205465 -0.236029
-0.086818 -0.463633 -0.259879
0.433386 -0.494931 -0.335337
0.128753 -0.254003 -0.661336
0.441042 -0.680789 -0.157165
0.038723 -0.078776 -0.124309
0.338878 -0.504979 -0.497893
0.306898 -0.495491 -0.531235
0.338063 -0.163796 -0.715744
0.414557 -0.584460 -0.144963
-0.271500 -0.270542 -0.318202
-0.178907 -0.319965 -0.479215
0.368685 -0.484574 -0.144365
0.084444 -0.044593 -0.151601
0.030074 -0.006363 -0.142794
0.132696 -0.270570 -0.690364
0.257501 -0.303527 -0.796997
0.427243 -0.380926 -0.452080
0.388615 -0.704596 -0.053880
0.421886 -0.725065 -0.173670
0.391466 -0.608294 -0.100043
0.009338 -0.187401 -0.449294
0.434924 -0.500350 -0.312077
0.413970 -0.806365 -0.049150
0.174779 -0.627548 -0.116828
-0.203256 -0.186728 -0.126381
0.243615 -0.255276 -0.769035
0.315336 -0.740489 -0.098433
0.115376 -0.214118 -0.109235
0.408263 -0.633000 -0.287270
0.299652 -0.724550 -0.163184
0.184024 -0.563422 -0.450330
0.313101 -0.101417 -0.301888
0.013892 -0.535339 -0.228894
0.253463 -0.008374 -0.399587
0.298745 -0.028270 -0.471777
0.239384 -0.672928 -0.244772
0.363675 -0.702294 -0.234586
0.205921 -0.664642 -0.139225
0.404153 -0.538505 -0.157998
0.056806 -0.278904 -0.633274
0.434302 -0.477844 -0.326144
0.244831 -0.268271 -0.790076
-0.057700 -0.012646 -0.117922
0.207314 -0.056898 -0.431490
-0.171225 -0.260078 -0.135365
0.169629 -0.390157 -0.725395
0.405125 -0.592934 -0.332564
-0.053263 -0.458934 -0.185297
0.351183 -0.170150 -0.313679
0.291776 -0.386389 -0.673463
0.287800 -0.699898 -0.071011
0.218482 -0.290115 -0.125075
0.258981 -0.197867 -0.695171
-0.114659 -0.048630 -0.122393
0.321916 -0.658291 -0.050985
0.310025 -0.609928 -0.057527
0.034341 -0.000202 -0.185326
0.438143 -0.805999 -0.067820
0.132993 0.039711 -0.214960
-0.023491 -0.512692 -0.358217
-0.014063 -0.381386 -0.725140
0.277642 -0.323737 -0.146747
0.244671 -0.018849 -0.407552
0.068540 -0.342179 -0.741080
0.089746 0.013190 -0.215803
-0.281768 -0.289229 -0.252827
-0.138562 -0.117509 -0.205982
0.305247 -0.510778 -0.085259
0.218632 -0.274331 -0.775247
0.153780 -0.463382 -0.616893
0.379968 -0.176557 -0.362684
0.402493 -0.122700 -0.465402
0.233457 -0.338580 -0.769428
-0.108488 -0.136726 -0.263130
-0.229310 -0.134420 -0.148362
0.383369 -0.693168 -0.055581
-0.227847 -0.155208 -0.181577
-0.131053 -0.430141 -0.267676
-0.100731 -0.115027 -0.100000
0.213998 -0.666819 -0.225809
0.313487 -0.513430 -0.088307
0.416062 -0.223731 -0.624097
0.375144 -0.020541 -0.466282
0.285462 0.013830 -0.395006
0.299018 -0.720121 -0.080570
-0.120658 -0.380894 -0.172941
-0.176689 -0.154840 -0.228112
0.408312 -0.762825 -0.137697
0.403467 -0.380783 -0.266529
-0.125854 -0.326854 -0.139385
0.053554 -0.508403 -0.497814
0.444497 -0.786540 -0.068018
0.426779 -0.437315 -0.415398
-0.110492 -0.264852 -0.457709
0.422320 -0.573792 -0.319122
0.291309 -0.213550 -0.748976
0.418380 -0.473713 -0.233892
0.259954 -0.593142 -0.057194
0.355002 -0.277248 -0.724049
0.328629 -0.481624 -0.533250
-0.089519 -0.054513 -0.154558
0.350638 -0.748014 -0.054918
0.037245 -0.545611 -0.362597
0.322360 -0.745161 -0.120713
0.404105 -0.792932 -0.087793
0.077432 -0.505643 -0.102803
-0.158734 -0.379856 -0.215399
-0.106454 -0.090572 -0.194247
-0.111535 -0.336488 -0.566572
0.157041 -0.026676 -0.338874
-0.054686 -0.234688 -0.462843
-0.208200 -0.391401 -0.456636
0.424112 -0.785978 -0.100700
0.412075 -0.338526 -0.549358
-0.059428 -0.453077 -0.532859
0.445203 -0.809731 -0.052521
0.445699 -0.821681 -0.040858
-0.067611 -0.223962 -0.094775
0.390502 -0.309630 -0.629966
0.283331 -0.499580 -0.079881
0.238486 -0.681790 -0.110394
0.414431 -0.529232 -0.183114
-0.178449 -0.364280 -0.219913
0.431092 -0.673786 -0.114988
0.344552 -0.523271 -0.103085
0.064216 -0.458385 -0.091044
0.434969 -0.500594 -0.294822
0.363686 -0.638593 -0.319848
-0.144346 -0.251223 -0.405648
-0.009098 -0.005223 -0.153031
-0.194644 -0.361411 -0.238518
0.259478 -0.228047 -0.178049
0.445308 -0.819901 -0.044562
0.006751 -0.520871 -0.200175
0.434535 -0.570010 -0.279822
0.197220 -0.661635 -0.158936
0.351813 -0.271245 -0.250096
0.316097 -0.667194 -0.292225
0.087737 0.023652 -0.197915
0.012500 -0.486753 -0.516844
0.433163 -0.807791 -0.067863
0.280447 -0.660012 -0.299351
0.348425 -0.607158 -0.070437
0.201896 -0.649391 -0.268584
0.043261 -0.004024 -0.199397
0.384083 -0.233473 -0.713511
0.148371 -0.182834 -0.570291
-0.015330 -0.372192 -0.709879
0.438122 -0.593384 -0.230920
0.346298 -0.068848 -0.577764
-0.096401 -0.377334 -0.643124
0.084186 0.008036 -0.218586
0.440734 -0.823964 -0.036825
-0.002855 -0.491213 -0.163349
0.370568 -0.727791 -0.195580
0.435044 -0.661920 -0.208132
-0.136906 -0.151658 -0.259860
0.138389 0.001644 -0.278287
0.394997 -0.280253 -0.646315
-0.204593 -0.128331 -0.115647
0.427656 -0.407183 -0.431967
0.313092 -0.598675 -0.060705
0.442046 -0.759211 -0.104925
0.422994 -0.787421 -0.099172
0.120726 -0.289879 -0.708947
0.204383 -0.567581 -0.065292
0.287422 -0.135323 -0.251800
0.247641 -0.463006 -0.078934
-0.048370 -0.173579 -0.374975
0.193503 0.002992 -0.326961
0.048778 -0.405952 -0.701961
0.436988 -0.790637 -0.047090
0.283217 -0.307686 -0.158388
0.250143 0.004524 -0.376756
0.374814 -0.085576 -0.629662
0.438730 -0.816657 -0.036873
-0.068822 -0.477763 -0.419310
0.166503 -0.210534 -0.129500
0.068192 -0.208562 -0.535918
0.393088 -0.638568 -0.298248
0.133297 -0.147091 -0.137129
0.441694 -0.761056 -0.076312
0.398747 -0.027893 -0.530697
0.347262 -0.018047 -0.500771
0.170340 -0.286036 -0.748733
0.201752 -0.298145 -0.796216
0.012519 -0.519789 -0.186446
-0.018250 0.003143 -0.131781
0.404737 -0.487589 -0.193169
-0.293685 -0.279691 -0.311804
0.394747 -0.793266 -0.074545
0.173959 -0.095418 -0.178670
0.327723 -0.703578 -0.050603
0.105822 -0.165850 -0.505082
0.325799 -0.265337 -0.220783
-0.256179 -0.175604 -0.186762
0.436006 -0.565667 -0.227487
0.107050 -0.309909 -0.085103
0.238694 -0.383213 -0.100688
0.135959 -0.204850 -0.592617
0.121383 -0.326576 -0.765810
0.427454 -0.738769 -0.152538
0.412136 -0.774306 -0.041066
0.294742 -0.163666 -0.675662
0.131780 -0.383872 -0.741228
0.400415 -0.797645 -0.057493
-0.218344 -0.360072 -0.276665
0.435466 -0.626754 -0.234139
0.409726 -0.606552 -0.122833
0.106948 -0.152808 -0.486125
-0.033736 -0.030589 -0.169237
0.258631 -0.635196 -0.060091
-0.299061 -0.249963 -0.225888
0.220022 -0.500784 -0.554861
0.193379 -0.487084 -0.578468
-0.159257 -0.163689 -0.257726
0.093357 -0.288441 -0.681545
-0.025835 -0.293578 -0.579688
0.412531 -0.090571 -0.536726
0.195474 -0.658497 -0.147958
0.082185 -0.452582 -0.082914
0.441849 -0.794607 -0.051248
-0.151087 -0.159980 -0.259562
-0.136425 -0.124653 -0.218902
-0.154089 -0.358908 -0.561766
0.004460 -0.197415 -0.460155
-0.008836 -0.282930 -0.579014
-0.188978 -0.125026 -0.111438
-0.006899 -0.196247 -0.447907
0.422947 -0.250250 -0.448485
0.310869 -0.017678 -0.350369
0.390253 -0.771911 -0.043175
-0.193040 -0.401441 -0.447943
0.169302 -0.002346 -0.312863
0.156328 -0.069308 -0.403575
0.320179 -0.670046 -0.050210
0.225833 0.033307 -0.281097
0.417678 -0.490823 -0.403831
-0.168515 -0.294617 -0.449922
0.297708 -0.357879 -0.702082
0.442748 -0.736535 -0.114943
0.146647 -0.356854 -0.778274
0.416237 -0.745442 -0.052527
0.334326 -0.665062 -0.050751
0.424039 -0.203193 -0.510906
-0.100358 -0.463698 -0.383516
0.046597 -0.348613 -0.081454
0.276646 -0.637606 -0.055632
-0.186015 -0.197083 -0.284288
0.185860 -0.654487 -0.203979
-0.011549 -0.257467 -0.537480
0.391070 -0.681990 -0.063888
0.128390 -0.473279 -0.598611
0.384288 -0.573774 -0.378571
0.367921 -0.595983 -0.086453
0.438468 -0.790798 -0.084248
-0.223508 -0.381159 -0.380189
-0.221873 -0.229182 -0.300485
-0.068083 -0.433440 -0.171404
0.052116 -0.566027 -0.250213
-0.119410 -0.438266 -0.483258
0.124135 0.015132 -0.194886
0.248535 -0.169518 -0.642092
0.403061 -0.747422 -0.160454
0.388552 -0.789977 -0.065947
-0.254174 -0.276594 -0.343432
0.444120 -0.778360 -0.079772
0.031453 -0.465180 -0.111064
-0.167901 -0.283553 -0.433526
0.295544 -0.203437 -0.222786
-0.089355 -0.026294 -0.111446
-0.167848 -0.349268 -0.534319
0.424891 -0.316117 -0.510022
-0.140930 -0.423931 -0.497853
0.225497 0.035450 -0.306656
-0.221066 -0.160382 -0.126709
0.353530 -0.595597 -0.077520
0.432006 -0.592463 -0.274789
0.435455 -0.677606 -0.123522
0.258425 -0.525153 -0.511991
0.403189 -0.606507 -0.321360
0.084902 -0.574904 -0.340268
0.090741 -0.550617 -0.424232
0.340281 -0.532034 -0.096227
0.132308 -0.551875 -0.091883
0.344354 -0.091445 -0.354288
0.173697 -0.289022 -0.106181
0.407384 -0.730079 -0.053606
0.358367 -0.768894 -0.074943
-0.115262 -0.219914 -0.384426
0.075031 -0.166911 -0.478362
0.282111 -0.154191 -0.649507
0.366794 -0.707201 -0.047247
-0.005463 -0.259352 -0.545972
0.435750 -0.821462 -0.041902
0.001550 -0.200429 -0.462096
0.143603 -0.627090 -0.215721
-0.119362 -0.060087 -0.135628
0.393536 -0.545093 -0.138568
-0.115971 -0.081411 -0.171441
0.438745 -0.694108 -0.121547
0.433832 -0.670782 -0.204493
0.311565 -0.448394 -0.585329
0.244037 -0.090604 -0.516973
0.084751 -0.306752 -0.701694
-0.163463 -0.335967 -0.173619
-0.252125 -0.141368 -0.138008
0.224525 -0.253387 -0.748563
0.043046 -0.236875 -0.556172
0.441228 -0.784402 -0.085955
0.244063 -0.117125 -0.219915
0.177743 -0.147398 -0.543008
0.240660 -0.335569 -0.119053
-0.254627 -0.193657 -0.215868
0.033062 -0.193391 -0.096486
0.347488 -0.252913 -0.255440
-0.138495 -0.104115 -0.102787
-0.141557 -0.145086 -0.245503
0.110607 -0.056682 -0.159264
0.285815 -0.692248 -0.067234
-0.186466 -0.212425 -0.307391
0.207273 -0.540831 -0.493265
0.300407 -0.712086 -0.201051
0.345212 -0.599618 -0.379110
0.399283 -0.206961 -0.698625
0.392425 -0.786243 -0.048904
0.405667 -0.435066 -0.482397
0.353263 -0.741209 -0.050031
-0.015001 -0.226959 -0.487532
0.290541 0.008174 -0.408354
-0.135677 -0.118684 -0.210441
-0.182590 -0.409094 -0.431883
0.411394 -0.665314 -0.089554
0.290830 -0.689060 -0.246753
0.068857 -0.490766 -0.546929
0.197345 -0.316279 -0.816284
0.106128 -0.601863 -0.218244
0.190911 -0.445021 -0.071705
0.417503 -0.352345 -0.328681
0.056038 -0.127897 -0.401064
0.422708 -0.146305 -0.618393
0.368992 -0.773137 -0.061780
0.218646 -0.675780 -0.146705
0.360453 -0.440282 -0.548846
-0.259321 -0.168226 -0.172559
0.027127 -0.133878 -0.107587
0.278667 -0.390635 -0.677618
-0.010502 -0.298149 -0.600810
-0.222032 -0.375596 -0.520535
0.417240 -0.667540 -0.239610
0.052410 -0.425154 -0.087424
-0.265870 -0.254562 -0.197876
-0.000201 -0.406931 -0.103851
-0.046357 -0.325830 -0.100778
0.008595 -0.148014 -0.101514
0.162389 -0.635406 -0.245729
0.381710 -0.485173 -0.159381
0.114740 -0.427678 -0.073633
-0.101251 -0.288865 -0.503032
0.243735 -0.357023 -0.740514
0.394302 -0.445606 -0.203052
0.331790 -0.028118 -0.375370
0.432874 -0.555224 -0.217539
0.183391 -0.375660 -0.742083
-0.110839 -0.172119 -0.315225
0.226460 -0.575032 -0.061154
0.327165 -0.510610 -0.499844
0.003046 -0.518522 -0.202177
0.433259 -0.717328 -0.088403
0.402550 -0.798005 -0.071448
-0.173191 -0.087533 -0.128146
0.183095 -0.638184 -0.278096
0.346732 -0.417989 -0.158089
0.411454 -0.497701 -0.412612
0.174241 -0.142872 -0.159164
-0.160573 -0.108496 -0.171902
0.238243 -0.489770 -0.070069
0.227659 -0.168527 -0.621355
0.423886 -0.492011 -0.235930
0.030142 -0.409589 -0.091898
0.430660 -0.409358 -0.347020
0.212209 -0.532752 -0.062710
0.213471 -0.488941 -0.066949
-0.135069 -0.393547 -0.203077
-0.061415 -0.150511 -0.327601
0.089898 -0.577559 -0.339454
0.426594 -0.543958 -0.202753
-0.055611 -0.065082 -0.201978
0.420817 -0.678397 -0.093686
0.379126 -0.586580 -0.369716
0.425159 -0.545157 -0.197445
-0.167092 -0.289474 -0.443349
0.066306 -0.314393 -0.696426
0.182576 -0.093634 -0.465033
-0.192220 -0.124692 -0.167595
-0.289796 -0.273142 -0.241678
0.142695 -0.621154 -0.265176
0.253101 -0.689242 -0.212047
0.367489 -0.606803 -0.081308
-0.086289 -0.307620 -0.545557
-0.069274 -0.085209 -0.220255
0.380309 -0.778715 -0.054062
0.127419 -0.024859 -0.308818
-0.039495 -0.168254 -0.374982
-0.233326 -0.156902 -0.179131
0.274695 -0.665981 -0.061678
0.295102 -0.431417 -0.110957
0.339114 -0.280943 -0.227500
0.191384 -0.195581 -0.629434
0.328465 -0.434712 -0.587604
0.057561 -0.489591 -0.543256
0.435759 -0.524299 -0.275985
0.298445 -0.217065 -0.760934
0.440518 -0.778595 -0.059826
0.377135 -0.705917 -0.049527
0.015385 -0.028852 -0.211796
0.300862 -0.673535 -0.279876
0.409249 -0.762549 -0.043202
0.417686 -0.354144 -0.327852
0.215540 -0.579408 -0.063898
-0.198598 -0.382033 -0.290286
0.255570 -0.199786 -0.694972
-0.017341 -0.478338 -0.509090
-0.167879 -0.170305 -0.259931
0.424867 -0.439655 -0.422266
0.420866 -0.125157 -0.564536
0.168906 -0.264860 -0.714948
-0.010045 -0.370986 -0.712894
0.008042 -0.502158 -0.469523
0.263668 -0.247944 -0.776256
0.380723 -0.455516 -0.176100
0.368810 -0.052911 -0.574058
-0.047673 -0.447511 -0.562119
0.238322 -0.499241 -0.553683
-0.189492 -0.384855 -0.277059
-0.020037 -0.410920 -0.115935
0.322463 -0.470542 -0.111541
-0.316321 -0.282028 -0.294547
0.413110 -0.682316 -0.229488
-0.167924 -0.327876 -0.171069
0.301863 -0.457211 -0.104271
0.364397 -0.731283 -0.190000
0.178679 -0.642351 -0.138802
0.423262 -0.189432 -0.517485
-0.251898 -0.143432 -0.141381
0.426096 -0.241205 -0.494549
-0.146681 -0.079817 -0.140724
0.025059 -0.233772 -0.534857
-0.037568 -0.130635 -0.319084
0.240404 -0.689319 -0.182564
0.096373 0.029279 -0.197239
0.424049 -0.793849 -0.089887
0.225569 -0.663615 -0.255598
-0.145022 -0.326106 -0.519826
0.222522 -0.102990 -0.516153
0.056799 -0.274312 -0.626228
0.164590 -0.251849 -0.691027
0.121215 -0.248171 -0.101616
0.203877 -0.578542 -0.067176
0.296649 -0.211349 -0.219606
-0.292901 -0.322133 -0.344939
0.283902 -0.716279 -0.100338
0.176278 -0.402579 -0.706108
-0.248426 -0.199227 -0.230116
0.400610 -0.194350 -0.401360
0.367860 -0.385972 -0.595647
0.160453 -0.320451 -0.093081
0.363357 -0.027194 -0.529612
-0.256062 -0.349539 -0.453522
0.283732 -0.447846 -0.098167
0.423468 -0.149055 -0.593364
0.419473 -0.807739 -0.064172
0.245926 -0.524986 -0.514956
0.037528 -0.357028 -0.735295
0.378557 -0.751013 -0.158387
0.289071 -0.468012 -0.575786
0.098344 -0.296123 -0.697914
0.430371 -0.429236 -0.323053
-0.003586 -0.520429 -0.380280
0.263496 -0.030549 -0.442820
0.152477 -0.599833 -0.109984
0.384798 -0.786133 -0.060514
0.222108 -0.584232 -0.421776
0.051778 -0.481269 -0.557858
0.076855 -0.319868 -0.714532
-0.205077 -0.340482 -0.222339
0.396818 -0.403269 -0.530310
0.325772 -0.240782 -0.234914
0.195047 -0.314831 -0.815623
0.203730 -0.309271 -0.815092
0.397796 -0.623086 -0.310410
0.218102 -0.431853 -0.653722
-0.033164 -0.275271 -0.544874
0.419013 -0.241172 -0.432622
0.058470 -0.502843 -0.514410
0.365741 -0.539285 -0.112164
0.035186 -0.027336 -0.227701
0.188863 -0.214336 -0.655865
0.316202 -0.060247 -0.331363
-0.166422 -0.345821 -0.185019
-0.229268 -0.273424 -0.361500
-0.155301 -0.341034 -0.533249
0.172433 -0.346138 -0.089541
-0.041787 -0.105883 -0.277254
-0.006090 -0.275144 -0.569605
0.408315 -0.130527 -0.481030
0.232699 -0.347518 -0.110643
0.294085 -0.332040 -0.155191
0.166550 -0.633452 -0.142238
-0.215862 -0.317931 -0.208226
0.108228 -0.602217 -0.258732
-0.070436 -0.318940 -0.108080
0.224069 -0.206644 -0.162598
0.438949 -0.708189 -0.110351
0.428403 -0.469857 -0.272478
0.427131 -0.810445 -0.063155
0.434573 -0.797487 -0.041751
-0.180912 -0.341696 -0.195751
0.426077 -0.449151 -0.280165
-0.061850 -0.378037 -0.676012
0.126751 -0.357794 -0.079290
0.170042 -0.568041 -0.436695
-0.078404 -0.080607 -0.204794
-0.221960 -0.198876 -0.253944
-0.251393 -0.363004 -0.478360
0.253262 -0.223936 -0.175245
0.427041 -0.286387 -0.448932
-0.026700 -0.491166 -0.455176
0.205684 -0.503603 -0.064849
0.405655 -0.775213 -0.120129
0.102116 -0.019157 -0.276782
0.308502 -0.700962 -0.057606
0.263857 -0.516272 -0.522951
0.266234 -0.587477 -0.418849
0.071103 -0.559748 -0.162634
0.423227 -0.668552 -0.229368
0.233228 -0.443519 -0.632742
0.409254 -0.102932 -0.509199
0.007350 -0.432961 -0.636061
0.423257 -0.421748 -0.442718
-0.017775 -0.102817 -0.106273
0.415229 -0.551902 -0.168684
0.313676 -0.720846 -0.065193
0.443901 -0.789594 -0.073827
0.028767 -0.548939 -0.243623
-0.044384 -0.501715 -0.301481
0.426028 -0.498868 -0.237665
-0.078522 -0.414423 -0.619466
0.268305 -0.397975 -0.109360
0.266237 -0.579857 -0.058068
0.282465 -0.027486 -0.455587
0.424780 -0.283441 -0.531100
0.028381 -0.376353 -0.750136
0.352502 -0.765760 -0.082923
0.379603 -0.780211 -0.057227
0.212600 -0.022648 -0.383850
0.315930 -0.104582 -0.303699
0.097411 -0.319466 -0.082555
0.045744 -0.248847 -0.577011
0.427207 -0.284525 -0.453931
0.412915 -0.120630 -0.511093
0.366015 -0.633254 -0.069399
-0.158804 -0.224773 -0.351788
0.053464 -0.094832 -0.124212
0.054002 -0.554163 -0.362476
-0.009619 -0.246250 -0.522060
0.340278 -0.568972 -0.080830
0.082990 -0.522608 -0.486000
0.144824 -0.125365 -0.478922
-0.229052 -0.188194 -0.137921
-0.025883 -0.193311 -0.092694
-0.074383 -0.334687 -0.598014
0.312753 -0.524063 -0.083951
-0.034939 -0.213377 -0.448354
0.166148 -0.053034 -0.387667
0.135076 -0.542336 -0.472985
0.351127 -0.546893 -0.439242
0.408961 -0.150091 -0.711233
0.242430 -0.430995 -0.646026
0.373462 -0.281919 -0.276761
0.255284 0.014200 -0.300645
0.372226 -0.041832 -0.443492
0.397222 -0.589904 -0.116584
0.415109 -0.557319 -0.164647
0.070330 -0.483286 -0.096691
0.205266 -0.520181 -0.526394
0.339303 -0.701945 -0.236661
0.397433 -0.582375 -0.121247
0.228085 -0.013630 -0.384282
-0.016145 -0.465006 -0.149131
0.322357 -0.301722 -0.196609
-0.008231 -0.283746 -0.580822
0.155253 -0.046280 -0.367283
0.299813 -0.282006 -0.185137
0.150163 -0.608342 -0.122797
0.337887 -0.693675 -0.048128
0.119908 -0.467430 -0.074625
0.426697 -0.455978 -0.276912
0.213417 -0.002595 -0.353860
-0.027076 -0.261975 -0.530095
0.358207 -0.221133 -0.291638
0.366017 -0.261927 -0.277542
0.286236 -0.548471 -0.471547
-0.186802 -0.148603 -0.209240
0.350489 -0.581330 -0.081589
0.081325 -0.157966 -0.114824
0.205745 0.019857 -0.255885
0.013481 -0.117376 -0.345756
0.375115 -0.072924 -0.610544
0.357930 -0.742029 -0.048201
0.050364 -0.295930 -0.653446
0.031158 -0.015671 -0.140309
0.213424 -0.192963 -0.645711
0.019057 -0.393608 -0.092344
-0.244337 -0.367898 -0.471093
0.379170 -0.639245 -0.309100
0.257623 -0.473302 -0.583615
0.428952 -0.811669 -0.061463
0.116685 -0.301982 -0.723782
-0.106302 -0.298989 -0.513901
-0.005708 -0.261323 -0.548768
-0.017721 -0.084282 -0.266295
0.370522 -0.248714 -0.293953
0.437615 -0.577087 -0.238679
0.144973 -0.605892 -0.126332
0.405968 -0.054553 -0.610784
-0.039212 -0.342865 -0.101992
0.100184 -0.326157 -0.745651
0.425534 -0.502952 -0.232549
-0.222599 -0.171079 -0.210740
0.171286 -0.640120 -0.246518
0.144948 -0.329966 -0.792702
0.412961 -0.612967 -0.300673
0.354219 -0.649955 -0.309772
0.058130 -0.249057 -0.588736
0.028243 -0.268351 -0.590799
0.405235 -0.652952 -0.089749
0.167258 -0.613272 -0.108264
-0.034179 -0.093236 -0.264870
0.429331 -0.691930 -0.098513
0.156480 -0.030103 -0.343612
0.076810 -0.529137 -0.466135
0.421631 -0.506510 -0.379401
-0.210507 -0.342919 -0.485314
0.060569 -0.336945 -0.080398
0.093977 -0.101865 -0.136164
0.441147 -0.704199 -0.148163
-0.034053 -0.401163 -0.681207
-0.104896 -0.454917 -0.435866
0.409043 -0.483388 -0.430918
-0.140592 -0.105883 -0.186290
-0.095284 -0.317557 -0.552512
0.092848 -0.002148 -0.242174
0.179937 0.028105 -0.238819
0.247941 -0.006868 -0.392194
0.138965 -0.241408 -0.651430
0.358133 -0.741350 -0.171182
-0.082121 -0.467118 -0.258898
0.442945 -0.738239 -0.109403
0.124619 -0.157811 -0.129828
0.196685 -0.655922 -0.234837
0.435592 -0.745798 -0.073156
0.237699 -0.167398 -0.628866
-0.202614 -0.204762 -0.131196
-0.263178 -0.261506 -0.312011
0.282830 -0.609471 -0.383837
0.074749 -0.050812 -0.300115
0.042716 -0.284270 -0.628529
0.231134 -0.104359 -0.215419
0.045730 -0.135589 -0.403367
0.198686 -0.400575 -0.082324
0.433209 -0.569553 -0.206290
-0.020906 -0.279124 -0.562066
0.186737 -0.165749 -0.156993
0.319541 -0.711874 -0.056115
0.320463 -0.357600 -0.164852
0.003541 -0.285740 -0.594715
0.431646 -0.425899 -0.388340
-0.206945 -0.392792 -0.448160
-0.008475 -0.337592 -0.663145
0.154988 -0.476459 -0.595804
0.330220 -0.365134 -0.170137
0.288621 -0.425645 -0.109533
0.364412 -0.773228 -0.073434
0.293421 -0.487318 -0.549042
0.419719 -0.210519 -0.465588
0.125805 -0.236346 -0.631553
0.060591 -0.127763 -0.405051
0.436337 -0.791611 -0.085801
0.030634 -0.080267 -0.304657
0.435528 -0.552131 -0.237669
-0.182443 -0.402144 -0.316273
0.166336 -0.107988 -0.472088
0.339529 -0.723719 -0.050736
0.121157 -0.164953 -0.517825
0.158295 -0.409820 -0.698928
0.119520 -0.051434 -0.342287
0.258694 -0.315569 -0.781756
-0.112425 -0.193494 -0.346534
0.435379 -0.667960 -0.202072
-0.184582 -0.353252 -0.213135
0.114630 -0.516767 -0.086795
0.279499 -0.261569 -0.177805
0.367424 -0.533688 -0.116555
0.422644 -0.408393 -0.301036
0.317761 0.007788 -0.434005
0.097288 -0.149855 -0.472704
0.373681 -0.775668 -0.058718
-0.271815 -0.166369 -0.158209
0.280540 -0.532833 -0.494847
0.251834 -0.688118 -0.099424
0.090558 -0.467856 -0.083166
-0.186970 -0.119112 -0.110471
0.316167 -0.652076 -0.315922
0.355611 -0.752232 -0.053936
0.341874 -0.654298 -0.308109
0.417724 -0.171905 -0.490238
0.138415 -0.028485 -0.185254
0.396163 -0.519103 -0.158236
0.422829 -0.130103 -0.599292
-0.184526 -0.236102 -0.345475
-0.103437 -0.459694 -0.406790
0.357775 -0.597196 -0.374511
0.148379 -0.626830 -0.250226
0.380949 -0.137519 -0.393311
0.037699 -0.277077 -0.612882
0.301732 -0.098620 -0.582377
0.234116 -0.217739 -0.702743
0.417918 -0.613080 -0.292121
0.229910 -0.293658 -0.815259
0.218812 -0.395970 -0.702131
-0.011858 -0.280864 -0.573064
-0.150799 -0.280528 -0.444633
-0.158092 -0.171641 -0.270990
-0.066643 -0.439305 -0.176508
0.432609 -0.437494 -0.338718
0.359326 -0.037823 -0.418460
0.432725 -0.431401 -0.366437
-0.186878 -0.379064 -0.562479
0.279045 -0.715758 -0.113726
0.373483 -0.474172 -0.155747
0.177859 0.001136 -0.315404
0.095257 -0.169968 -0.501668
-0.040596 -0.502192 -0.361180
0.101413 -0.177222 -0.518458
0.009608 -0.277711 -0.587993
0.263973 -0.463789 -0.084080
0.434350 -0.734203 -0.078805
0.281011 -0.714314 -0.101589
0.405848 -0.393453 -0.262734
0.368633 -0.496158 -0.137868
0.187008 0.000261 -0.325167
0.244371 0.031073 -0.330742
0.046188 -0.512886 -0.480499
0.004948 -0.387042 -0.725123
0.163912 -0.462065 -0.618861
0.270593 -0.663539 -0.289234
0.412759 -0.681553 -0.230708
0.202531 -0.244615 -0.714867
0.032297 -0.384934 -0.086771
0.107775 -0.274153 -0.092298
0.256428 -0.584203 -0.057808
0.310209 -0.200391 -0.240176
0.074751 -0.260284 -0.621249
0.259401 -0.506024 -0.070772
0.120377 -0.064551 -0.363185
0.432274 -0.817467 -0.039026
0.274932 -0.004249 -0.413028
0.208170 -0.641723 -0.094441
0.307048 -0.425320 -0.121261
-0.278574 -0.177895 -0.169656
0.380190 -0.387009 -0.575850
-0.080100 -0.307422 -0.550953
0.385448 -0.242803 -0.702011
0.140203 -0.620159 -0.168843
0.241519 -0.690990 -0.174830
0.297046 -0.347424 -0.714675
0.319258 -0.320723 -0.723522
0.091052 -0.324325 -0.734434
0.404777 -0.797100 -0.077920
0.105142 -0.280545 -0.680290
0.420016 -0.282213 -0.400308
0.333904 -0.739262 -0.062360
0.287935 -0.329823 -0.151487
0.286019 -0.598293 -0.056708
0.294088 -0.654968 -0.310892
0.431509 -0.586087 -0.184964
0.366632 -0.754902 -0.048384
-0.122898 -0.107201 -0.204601
0.016065 -0.489460 -0.140404
0.063752 -0.358547 -0.761766
0.435950 -0.821193 -0.044300
0.342048 -0.755356 -0.074167
0.006508 -0.083269 -0.287048
0.229998 -0.560665 -0.461906
0.343807 -0.508636 -0.489664
0.309216 -0.546450 -0.074614
0.087651 -0.159252 -0.116351
0.432463 -0.498905 -0.268272
0.364775 -0.635062 -0.068048
0.259746 -0.672811 -0.074112
0.348632 -0.757140 -0.127888
0.437806 -0.705865 -0.162948
0.310639 -0.653686 -0.051505
0.165582 -0.505869 -0.547929
0.203796 -0.002704 -0.345168
0.325160 -0.014610 -0.475154
0.243322 -0.169636 -0.637474
0.023747 -0.496271 -0.502667
0.442937 -0.820282 -0.037245
-0.287198 -0.333730 -0.376302
0.402811 -0.053705 -0.606577
0.262348 -0.047924 -0.468400
0.347188 -0.024209 -0.404529
0.368742 -0.759194 -0.140278
0.298588 -0.712082 -0.071561
0.187940 -0.365993 -0.753889
0.106397 -0.199594 -0.110626
0.094774 -0.589027 -0.187754
0.409044 -0.772357 -0.040996
0.281747 -0.615135 -0.054952
0.344885 -0.402892 -0.606648
0.376410 -0.217629 -0.744269
0.284107 -0.434472 -0.620492
0.425796 -0.699277 -0.087763
0.114099 0.020499 -0.227019
0.135196 -0.014334 -0.189216
0.189186 -0.220610 -0.665781
-0.205000 -0.123641 -0.154217
0.399470 -0.367098 -0.557914
0.404194 -0.031186 -0.549668
0.130278 -0.483342 -0.073852
0.391412 -0.711687 -0.212416
0.039163 -0.187340 -0.476659
0.423526 -0.595514 -0.155046
0.410787 -0.684078 -0.078434
0.204799 -0.298033 -0.115639
0.232922 -0.586378 -0.419700
-0.033216 -0.508183 -0.344971
0.349602 -0.601214 -0.374647
0.136925 -0.472544 -0.600916
0.385430 -0.286626 -0.295664
0.073843 -0.395786 -0.078699
0.133857 -0.197437 -0.120486
0.430632 -0.526538 -0.232499
0.132906 -0.238652 -0.641627
0.006757 -0.000300 -0.160082
0.342078 -0.643462 -0.323032
-0.077292 -0.318727 -0.570868
0.426973 -0.488864 -0.249656
0.437030 -0.668709 -0.136345
0.284181 -0.517572 -0.074631
0.430039 -0.618472 -0.259923
0.402239 -0.574524 -0.132233
0.434641 -0.638615 -0.228324
-0.086392 -0.121131 -0.259564
0.308705 -0.639140 -0.336318
-0.176408 -0.148253 -0.218272
0.202977 -0.650820 -0.265509
0.432617 -0.818592 -0.048054
-0.122045 -0.361509 -0.595255
-0.128399 -0.242345 -0.406719
0.177494 -0.110847 -0.486744
0.079306 -0.583918 -0.263931
0.426825 -0.697907 -0.090231
0.443917 -0.808657 -0.045490
-0.128129 -0.181427 -0.103234
0.308756 -0.714884 -0.064810
0.426414 -0.341771 -0.381865
0.259721 -0.569357 -0.059045
0.012265 -0.527370 -0.205140
0.260791 -0.281001 -0.154316
-0.103978 -0.112129 -0.229575
0.349962 -0.292479 -0.234489
0.240458 -0.656639 -0.287366
-0.261871 -0.212906 -0.238708
-0.035003 -0.286323 -0.560125
0.212814 -0.413471 -0.082589
0.288946 -0.128962 -0.617122
0.431669 -0.408362 -0.362358
0.105195 -0.009344 -0.264572
0.236545 -0.225051 -0.716190
0.312435 -0.701159 -0.055763
0.401067 -0.791641 -0.088613
0.441576 -0.804378 -0.044470
0.056295 -0.168855 -0.464093
0.135601 -0.416065 -0.691800
0.045857 -0.327342 -0.697452
0.419875 -0.617488 -0.284297
0.348642 -0.646628 -0.316409
0.427247 -0.708041 -0.184080
0.358168 -0.634964 -0.327407
0.346831 -0.532917 -0.458966
0.383385 -0.545754 -0.409697
0.205977 -0.668413 -0.165174
0.128179 -0.505051 -0.542252
0.418468 -0.108387 -0.559066
0.442186 -0.825659 -0.037221
-0.191877 -0.346127 -0.213156
-0.064045 -0.325012 -0.592700
-0.222079 -0.359142 -0.499530
-0.031941 -0.458444 -0.548577
0.388198 -0.784885 -0.052130
0.390379 -0.761740 -0.141553
0.352738 -0.672512 -0.279594
0.111134 -0.322259 -0.749756
0.404789 -0.798244 -0.074464
0.115689 -0.160426 -0.505851
-0.122453 -0.094250 -0.185157
0.356929 -0.570896 -0.090150
0.242643 -0.633114 -0.065735
0.257946 0.008633 -0.377641
-0.254303 -0.351855 -0.458692
-0.124891 -0.232429 -0.394747
0.310151 -0.731686 -0.083093
0.391343 -0.117949 -0.434427
-0.153898 -0.108524 -0.104427
0.148386 -0.276729 -0.101532
0.081590 -0.114346 -0.403816
0.176850 -0.549430 -0.070459
0.029604 -0.467582 -0.113557
0.213546 0.009256 -0.335810
0.161275 -0.638813 -0.193559
0.369047 -0.653736 -0.297824
0.338155 -0.184907 -0.748193
0.106399 -0.575882 -0.135791
0.379713 -0.693308 -0.054051
0.445617 -0.819088 -0.043191
-0.014639 -0.171377 -0.402654
0.036079 -0.166638 -0.442082
-0.232813 -0.258965 -0.173934
0.425287 -0.246768 -0.545396
-0.236514 -0.312028 -0.225134
-0.046319 -0.199688 -0.416891
0.438163 -0.820265 -0.036728
-0.161250 -0.232755 -0.361774
0.065870 -0.569872 -0.316589
0.356785 -0.178105 -0.754916
0.268052 -0.316781 -0.143226
0.330628 -0.641071 -0.329707
0.435289 -0.741818 -0.137551
0.223798 -0.202216 -0.669446
0.440241 -0.735043 -0.092674
0.256631 -0.168305 -0.647687
0.378612 -0.779923 -0.096544
0.437019 -0.712682 -0.159663
0.056523 -0.157840 -0.108346
-0.146399 -0.197904 -0.322017
0.105659 -0.437794 -0.075270
0.310128 -0.720328 -0.067971
0.262707 -0.630849 -0.058192
0.387844 -0.215385 -0.352009
0.020706 -0.284250 -0.608234
0.440158 -0.657575 -0.180522
0.293544 -0.597402 -0.400538
0.142459 0.041785 -0.220495
0.209254 -0.597114 -0.395033
0.331381 -0.344466 -0.684661
0.256393 0.017945 -0.361936
0.128045 -0.574201 -0.397661
0.201462 -0.467002 -0.069230
-0.284413 -0.327149 -0.393096
