ply
format ascii 1.0
element vertex 1676
property float x
property float y
property float z
end_header
0.031431 -0.138599 -0.770746
0.034043 -0.073684 -0.827149
-0.110093 0.056610 -0.746254
0.419646 0.115977 -0.201320
0.036331 -0.241721 -0.541856
0.506800 0.104184 -0.733480
0.256378 -0.161229 -0.240332
0.330356 0.151134 -0.180742
0.286315 -0.077107 -0.824465
0.303921 0.050708 -0.163425
0.253553 0.422828 -0.719745
0.582009 0.203360 -0.503145
0.179567 -0.187748 -0.745046
0.550145 0.003461 -0.369135
0.248082 0.403131 -0.759134
0.079242 0.363211 -0.427829
0.580774 0.048517 -0.477865
0.315143 -0.247324 -0.494944
0.430466 0.406843 -0.571234
0.363767 0.331436 -0.799188
-0.145700 0.008988 -0.607720
0.088722 -0.122314 -0.248161
0.140259 0.352643 -0.812312
0.233362 0.219099 -0.207866
0.149061 0.367908 -0.374256
-0.070536 -0.158300 -0.598613
-0.044847 -0.181153 -0.471585
-0.053030 -0.165128 -0.450252
0.552496 -0.024617 -0.526262
0.119623 0.423160 -0.586223
0.494501 -0.010080 -0.276113
-0.069798 0.071755 -0.347984
0.495617 0.268068 -0.717150
0.566759 0.171083 -0.621483
0.295599 0.091369 -0.164912
-0.067685 0.255467 -0.491449
0.208536 0.048273 -0.166130
0.086585 0.254064 -0.870552
0.164372 0.278034 -0.265338
0.189404 0.021540 -0.896926
0.149136 -0.248360 -0.631616
0.503409 -0.074786 -0.348062
0.448142 0.096264 -0.215429
0.224222 0.082715 -0.907375
0.047751 -0.155221 -0.299132
0.271950 0.029073 -0.162063
0.400105 -0.086838 -0.235872
0.015101 0.268355 -0.818134
0.293935 -0.031194 -0.173383
0.374416 0.392056 -0.394723
0.453632 -0.163641 -0.485587
-0.066230 0.008442 -0.796265
-0.096584 0.235341 -0.638496
0.477027 0.130238 -0.240820
0.043999 -0.243373 -0.478678
0.404015 0.382747 -0.705443
0.001092 0.353334 -0.622069
0.168906 0.116139 -0.914556
0.154815 -0.258059 -0.401486
0.082119 -0.052658 -0.856733
-0.111753 0.117226 -0.440938
-0.080209 -0.151929 -0.566805
0.571247 0.204197 -0.589831
-0.027809 -0.143114 -0.367258
0.496050 0.051869 -0.257128
-0.076046 0.063683 -0.797818
-0.027988 0.241161 -0.391193
0.365405 0.408402 -0.694802
0.571587 0.029447 -0.424286
0.352641 0.256156 -0.849997
0.203325 0.228520 -0.899498
-0.005206 0.332546 -0.699648
-0.005880 0.110195 -0.862129
0.354892 0.397568 -0.725292
0.306950 0.087808 -0.165498
0.395318 -0.206224 -0.438350
0.320230 0.425482 -0.448841
0.359936 0.388060 -0.737285
0.462178 -0.149780 -0.411960
0.222797 -0.265389 -0.433014
0.576077 0.056576 -0.414329
0.152700 -0.125943 -0.224271
0.389595 0.418421 -0.483196
0.011274 -0.113136 -0.297557
0.159301 0.122006 -0.914469
-0.148287 0.035505 -0.603377
0.453604 0.316377 -0.337175
0.273174 0.031114 -0.161976
0.146496 -0.061024 -0.196255
0.473367 -0.141926 -0.513267
0.556946 0.026723 -0.367966
0.111745 0.354104 -0.379901
0.442897 -0.171380 -0.437501
-0.080871 0.263569 -0.594961
0.021501 -0.118560 -0.785117
0.171633 -0.033064 -0.875850
-0.053177 0.257466 -0.457720
0.361153 -0.194571 -0.331410
0.459381 0.244340 -0.275609
0.396078 0.065184 -0.186960
0.472834 0.036385 -0.237551
0.392620 0.248374 -0.240832
0.511989 0.335883 -0.477800
0.424324 0.389710 -0.663601
0.288852 -0.202081 -0.683619
-0.144841 0.102470 -0.600534
0.313508 -0.109441 -0.785325
0.221544 -0.197447 -0.276449
-0.142702 0.091870 -0.642435
0.409477 -0.086036 -0.241797
0.488229 -0.116064 -0.554719
0.341823 0.188601 -0.195638
0.455994 -0.151355 -0.394795
0.106099 -0.192384 -0.733944
0.412138 0.328698 -0.320558
0.251869 -0.202914 -0.703034
0.485424 0.089297 -0.243920
0.376478 -0.009086 -0.817262
0.188198 -0.259344 -0.398213
0.084983 0.398246 -0.515277
0.588647 0.157859 -0.480700
0.283822 -0.094590 -0.812325
-0.114990 0.129339 -0.724554
0.366893 0.429954 -0.620639
-0.023131 0.112055 -0.301719
0.503017 0.165705 -0.274100
-0.039174 0.001201 -0.306588
0.018114 -0.105248 -0.795067
0.023067 -0.032703 -0.845654
0.231129 0.060946 -0.902188
0.577986 0.124315 -0.398244
0.433715 0.241349 -0.800265
0.092888 0.367148 -0.766667
0.002712 -0.161097 -0.348103
0.341297 -0.062289 -0.807201
-0.113534 -0.057130 -0.677134
0.530019 0.187611 -0.316228
-0.125523 -0.035694 -0.475902
0.072406 -0.142794 -0.784648
0.553565 0.085630 -0.335243
0.554273 0.198715 -0.365371
-0.050704 0.223859 -0.780352
0.022297 -0.081975 -0.271047
0.474656 -0.071301 -0.294555
0.498022 0.345869 -0.460469
0.057075 -0.181496 -0.731332
0.241225 0.437063 -0.484175
0.325884 0.199368 -0.197615
0.221406 -0.269564 -0.505793
0.127208 -0.041860 -0.197491
0.469911 -0.048051 -0.270030
0.285707 -0.253151 -0.428108
0.101473 0.327015 -0.823325
0.040718 0.375022 -0.529401
0.205427 0.024222 -0.167010
-0.084429 0.201051 -0.450294
-0.001684 -0.022200 -0.272389
0.339974 0.356237 -0.324098
0.035723 -0.213369 -0.388946
0.497897 0.249251 -0.315240
0.392619 0.423301 -0.597834
0.114923 -0.131693 -0.805671
0.320937 0.372495 -0.781153
-0.103820 -0.008256 -0.736977
0.337219 0.146536 -0.877983
0.522557 0.325994 -0.563560
0.479346 -0.062367 -0.669840
0.575803 0.164166 -0.592908
0.115523 0.347853 -0.367571
0.035566 -0.111748 -0.276181
0.326120 0.356304 -0.796557
0.432561 0.225757 -0.806480
0.445528 0.357600 -0.694009
0.186489 -0.272046 -0.505310
0.342036 0.077386 -0.170254
0.044544 -0.181080 -0.724955
0.511191 0.311803 -0.410322
0.147417 0.348344 -0.819412
0.206349 0.286071 -0.257985
0.093731 -0.261926 -0.520814
0.492378 -0.076443 -0.627209
0.300990 0.060617 -0.163202
0.117964 -0.185536 -0.285926
0.146180 0.420595 -0.499140
0.536877 -0.034057 -0.577820
0.416695 -0.056889 -0.228575
0.411577 -0.169085 -0.343746
0.048166 0.121195 -0.890472
0.557523 0.055630 -0.619682
-0.144847 0.103069 -0.589212
-0.100671 0.178368 -0.726249
0.227408 -0.140205 -0.791095
-0.142674 0.083148 -0.529639
0.268640 0.295798 -0.255971
0.181465 0.212382 -0.215888
0.055893 0.121806 -0.893521
0.396967 0.420374 -0.605435
0.423357 0.411036 -0.537820
0.417118 0.413198 -0.523741
-0.046675 0.303917 -0.559785
0.576556 0.081345 -0.573644
0.200386 0.122420 -0.177130
-0.052747 0.057716 -0.822211
0.289760 0.065700 -0.162494
0.027166 -0.237569 -0.541454
0.032973 0.042816 -0.240168
-0.018234 -0.038367 -0.291920
0.234556 -0.156077 -0.234407
0.187133 -0.073693 -0.851758
0.508557 -0.104252 -0.466186
-0.000397 0.190273 -0.315462
-0.029047 0.209734 -0.362901
0.470500 0.206934 -0.261972
-0.043899 0.196095 -0.807427
0.428343 0.115801 -0.205803
-0.068837 0.052136 -0.804723
0.255814 -0.187486 -0.267411
0.464367 0.058342 -0.771692
0.156710 -0.047382 -0.189136
0.575102 0.038625 -0.530424
0.182055 -0.098315 -0.202043
0.075819 -0.238430 -0.401505
0.112958 -0.060628 -0.208525
-0.014924 -0.161458 -0.371109
-0.054263 0.194303 -0.386365
-0.026163 -0.038403 -0.300155
0.492099 0.293510 -0.702153
-0.108972 0.134596 -0.445633
0.534460 0.113200 -0.301634
0.267582 -0.260709 -0.454749
0.409061 -0.192266 -0.407348
0.455556 0.245720 -0.273693
0.422372 -0.031348 -0.766922
-0.138311 0.088572 -0.509618
0.201316 -0.190170 -0.268634
0.410324 0.417740 -0.564794
0.045511 0.322869 -0.398345
-0.077203 -0.127940 -0.661000
0.470047 0.134620 -0.781708
0.301586 0.187929 -0.889389
0.077461 0.163535 -0.239464
0.320555 0.377302 -0.775454
-0.005977 0.337807 -0.680731
0.044008 0.140837 -0.252741
-0.014135 -0.087918 -0.307585
0.179807 0.422238 -0.469376
-0.011345 0.336579 -0.541760
0.191661 -0.174053 -0.252996
0.290018 0.424016 -0.437819
0.449976 -0.110179 -0.654459
0.284477 0.331981 -0.289615
0.017795 -0.108590 -0.288852
0.424250 -0.176009 -0.561077
-0.047528 0.013609 -0.816754
0.562480 0.229750 -0.416842
0.090582 -0.102958 -0.825417
0.384177 0.358763 -0.758062
0.473185 0.113785 -0.776197
-0.021842 0.082661 -0.850668
0.457231 0.372987 -0.442216
-0.105692 0.201902 -0.681856
0.145886 0.341346 -0.338573
0.428156 -0.107518 -0.275728
0.346965 0.425828 -0.464556
0.362924 0.356996 -0.332167
-0.064318 -0.142777 -0.661147
0.294069 -0.253147 -0.516456
0.175476 -0.245898 -0.360901
0.519040 0.331448 -0.498556
0.197102 0.435418 -0.503911
-0.115256 -0.016236 -0.433704
0.553108 0.280844 -0.536723
0.578474 0.080827 -0.408263
0.111489 0.121775 -0.206758
0.371720 0.023282 -0.835346
0.023678 -0.186143 -0.356343
0.140940 -0.004916 -0.185697
0.236044 0.323363 -0.849139
0.112319 0.086984 -0.198861
-0.044972 0.229120 -0.404734
0.358360 -0.159793 -0.695207
-0.107533 0.079941 -0.414856
0.229755 -0.224467 -0.316423
0.268532 0.450181 -0.586630
0.443574 0.354337 -0.382292
0.329774 -0.150945 -0.250362
-0.112211 -0.082459 -0.480906
0.026762 -0.103100 -0.278110
-0.122149 0.176668 -0.649052
0.321079 0.352352 -0.802739
0.015373 0.249398 -0.344821
0.377834 0.294371 -0.269821
0.060491 0.395067 -0.599710
0.249299 -0.257014 -0.568922
0.299298 0.426490 -0.698097
0.315056 0.167765 -0.183940
-0.118494 -0.064025 -0.652227
0.366310 -0.134318 -0.722095
0.194820 -0.214793 -0.701575
-0.009147 0.328799 -0.505209
-0.113809 -0.100243 -0.572620
0.215774 -0.261291 -0.408700
0.242263 -0.190402 -0.269110
0.199388 0.194584 -0.202300
-0.038240 -0.188065 -0.601920
0.258577 -0.170672 -0.249617
0.160650 -0.236222 -0.343357
0.101672 0.125124 -0.907093
0.322852 -0.213245 -0.631916
0.292528 0.093534 -0.892115
0.411995 0.040206 -0.813270
0.505453 -0.056411 -0.628208
0.520886 0.271736 -0.670811
0.575721 0.029375 -0.490482
-0.115820 0.033273 -0.730730
0.416735 0.391103 -0.672197
0.568904 0.246862 -0.516957
0.278097 -0.040540 -0.174457
0.240108 0.428600 -0.705746
0.538166 0.128128 -0.687835
0.548134 0.287001 -0.556132
0.579806 0.179880 -0.568151
0.503990 0.120853 -0.264431
-0.064752 0.095627 -0.811805
0.263051 0.334730 -0.836312
0.135253 0.363177 -0.376103
0.352730 0.249031 -0.228946
0.541535 0.092082 -0.673767
-0.078682 0.259834 -0.547172
-0.026996 -0.204752 -0.534825
0.084439 0.391928 -0.492589
0.561049 0.112003 -0.636297
0.106099 -0.236604 -0.370302
0.118573 0.408279 -0.492541
0.542557 0.264830 -0.625755
0.248312 -0.259485 -0.417887
-0.038325 -0.172798 -0.430568
0.444487 0.136206 -0.806683
-0.010454 0.343800 -0.614295
0.023268 -0.235725 -0.504620
0.550461 0.026810 -0.615671
0.237727 0.359887 -0.326980
0.213141 0.143251 -0.912656
0.158101 -0.040229 -0.872513
0.351186 0.393833 -0.734350
0.027603 0.243154 -0.845277
0.183836 -0.047336 -0.182484
0.357731 0.355709 -0.328602
0.074493 -0.255777 -0.485920
-0.048107 0.207586 -0.388360
0.508849 0.225624 -0.310579
0.184433 0.084897 -0.173764
-0.097264 0.208364 -0.496691
0.126379 -0.260199 -0.582603
-0.096585 -0.016310 -0.744884
0.396620 -0.087947 -0.744785
0.473298 0.357658 -0.432181
0.420710 -0.094843 -0.257375
0.278700 0.449704 -0.591086
0.139212 -0.232409 -0.669916
-0.048580 0.108823 -0.329901
0.329061 -0.201335 -0.651762
0.093240 0.221015 -0.260079
0.425204 0.310284 -0.769205
0.206889 0.271024 -0.882691
-0.021528 -0.145309 -0.721232
0.263230 -0.215101 -0.675594
0.101244 0.359002 -0.396978
0.569759 0.107426 -0.371660
0.072899 0.044197 -0.891590
-0.111847 0.118674 -0.442047
0.464181 0.055288 -0.227518
0.356501 0.229082 -0.218053
0.296292 -0.058983 -0.182702
0.315308 0.428561 -0.456641
0.422208 0.364659 -0.379188
0.069271 -0.215207 -0.357040
-0.021402 0.098251 -0.295786
0.366224 -0.142110 -0.712349
0.576420 0.031492 -0.474058
0.583238 0.186263 -0.538949
0.065285 0.315021 -0.814343
0.320634 0.122205 -0.172306
0.056356 0.203216 -0.879388
0.580706 0.082345 -0.554231
0.457630 0.390308 -0.537197
0.272075 -0.046923 -0.175985
0.229981 -0.078530 -0.187271
0.571272 0.029606 -0.422059
0.200629 -0.264605 -0.566712
0.342620 -0.213717 -0.354482
0.033966 0.376691 -0.568707
0.267184 0.009296 -0.163742
0.389286 -0.172450 -0.320653
0.572822 0.077477 -0.387453
0.264144 0.186545 -0.189561
0.427277 -0.069398 -0.243920
0.152153 0.418966 -0.698210
0.487022 0.191036 -0.268467
0.299996 0.132180 -0.892918
0.236589 0.413148 -0.416812
-0.006735 -0.144788 -0.341699
0.480471 0.108977 -0.767357
0.407454 -0.098173 -0.249483
0.123857 -0.242749 -0.373161
0.554149 0.124967 -0.336260
0.052310 0.354724 -0.446223
-0.049034 0.199818 -0.799204
0.039989 0.089937 -0.886559
0.119367 -0.131486 -0.806483
0.464308 0.206129 -0.781792
-0.072645 0.273978 -0.577900
0.394857 0.400105 -0.428720
0.051666 0.382592 -0.531361
-0.142620 -0.012660 -0.549746
0.290586 0.316672 -0.274224
0.190602 0.182752 -0.910525
0.006824 0.204915 -0.317809
0.510753 0.093303 -0.725355
0.037872 0.009090 -0.869580
0.398180 0.396982 -0.684261
0.399504 0.001462 -0.805954
0.316679 0.080835 -0.880831
0.339414 -0.237321 -0.458098
0.344269 0.376109 -0.764507
-0.122413 -0.007375 -0.698008
0.194790 0.313315 -0.285814
-0.056845 0.203250 -0.398431
-0.084985 0.223287 -0.715547
0.299242 -0.185610 -0.276702
0.320581 0.364461 -0.331054
0.003350 0.351711 -0.554477
-0.080128 0.251155 -0.525528
-0.039051 -0.194395 -0.555610
-0.134881 0.145028 -0.623004
0.492357 0.328302 -0.659270
-0.017402 -0.040922 -0.291803
0.377364 0.387215 -0.387007
0.514543 -0.095475 -0.490500
0.443539 -0.123434 -0.644101
0.356039 0.188288 -0.198541
0.495368 0.013316 -0.266721
-0.035437 -0.194781 -0.578797
0.462338 -0.103397 -0.312469
0.285281 0.403544 -0.390898
0.063472 -0.099167 -0.820602
0.071904 -0.002917 -0.877182
0.002302 0.309824 -0.758661
0.242968 -0.257674 -0.405409
0.476767 0.027941 -0.744450
0.260956 0.287615 -0.868090
0.373736 0.418972 -0.464377
0.491586 0.358891 -0.491001
0.196716 -0.137622 -0.799898
0.260730 0.080858 -0.163089
0.288999 0.425080 -0.706025
0.297351 -0.051571 -0.836803
0.510403 -0.067194 -0.353038
0.456639 0.103003 -0.791491
0.152923 0.071081 -0.909581
0.034350 0.316522 -0.787258
0.180486 -0.238295 -0.343158
0.321492 0.410694 -0.722697
0.125443 0.401485 -0.724318
0.100372 -0.081364 -0.221652
0.413142 0.392409 -0.674452
0.528137 0.000894 -0.320433
-0.128024 -0.025060 -0.667502
0.299911 0.372454 -0.339812
0.190552 -0.030170 -0.876005
0.340181 -0.237448 -0.484502
0.550126 -0.032680 -0.435940
0.400455 -0.202558 -0.512501
0.501950 0.274077 -0.702984
0.017837 0.202759 -0.858373
0.578706 0.124770 -0.400983
0.096122 0.058701 -0.203040
0.429716 0.021286 -0.208596
0.110703 0.399933 -0.476561
0.070952 -0.227335 -0.379224
0.181708 0.354952 -0.338184
0.372650 -0.159629 -0.285747
0.494965 0.268295 -0.328536
0.551882 0.044521 -0.626637
0.144842 0.240871 -0.892091
0.290322 0.101590 -0.893917
-0.079372 -0.115118 -0.428055
-0.089912 -0.134345 -0.504592
0.368694 0.093914 -0.857207
0.273760 -0.001993 -0.165511
0.313381 -0.033494 -0.177022
0.533039 -0.002565 -0.630871
0.357483 -0.037984 -0.813283
0.109372 0.412777 -0.665332
0.117153 -0.245169 -0.383460
0.195161 -0.055681 -0.861938
-0.038266 -0.087639 -0.335253
0.187244 0.409821 -0.430572
0.161922 0.401047 -0.427376
0.008646 0.359919 -0.600858
0.226100 0.082245 -0.165865
-0.120275 -0.062629 -0.484447
0.569991 0.237231 -0.549378
0.060227 -0.235641 -0.412395
0.430368 -0.125619 -0.298418
0.147571 0.005830 -0.182327
-0.142212 0.080993 -0.525264
0.052019 -0.142044 -0.777433
0.037316 -0.144227 -0.297917
0.501891 0.049435 -0.263967
0.535508 0.296770 -0.446395
0.049020 0.383919 -0.547958
0.331835 0.432747 -0.480156
0.000948 0.322495 -0.465529
-0.000555 -0.169195 -0.707816
-0.042428 -0.038139 -0.318435
0.559190 0.141756 -0.349738
0.513912 -0.094693 -0.438720
0.549200 -0.002487 -0.586061
0.558916 0.267140 -0.482235
0.505558 0.344229 -0.578853
0.238810 -0.158085 -0.768829
0.365551 0.338455 -0.309877
0.289784 -0.110722 -0.207115
-0.136362 0.014412 -0.667859
0.176600 0.409641 -0.437001
-0.059471 -0.050750 -0.773269
0.144203 -0.036063 -0.190119
0.292920 0.418799 -0.719265
0.238965 0.208356 -0.901317
-0.010268 -0.118813 -0.762849
0.223929 -0.263124 -0.560669
0.403154 -0.013455 -0.794996
0.505907 0.064219 -0.266149
0.114517 0.272581 -0.870040
0.530810 0.033014 -0.665357
0.498917 0.302804 -0.681042
-0.076140 -0.054678 -0.749897
-0.068207 0.104019 -0.354638
0.535376 -0.046864 -0.393519
-0.081381 -0.082576 -0.398906
-0.011020 0.259007 -0.800444
0.543351 -0.022293 -0.379572
0.442290 0.395726 -0.601737
0.510512 0.313161 -0.642667
0.011889 0.074881 -0.871623
-0.129266 0.163738 -0.571098
0.140206 0.410154 -0.714283
0.435843 0.126084 -0.211661
-0.052332 0.002196 -0.808197
0.216234 0.282387 -0.876555
-0.019690 0.330808 -0.552325
0.412714 0.006445 -0.201926
0.036778 0.351183 -0.463237
0.000983 0.353520 -0.592701
0.242350 0.181062 -0.905618
0.415215 0.276090 -0.271001
0.100539 -0.249830 -0.609059
0.019147 -0.213471 -0.413085
0.146406 -0.115935 -0.220264
0.376261 0.425729 -0.625015
0.503909 0.056544 -0.722401
0.212217 -0.264503 -0.561220
-0.064625 -0.017580 -0.786902
0.444518 0.363408 -0.685901
0.453103 0.161674 -0.230992
0.033188 0.369665 -0.675547
0.433997 -0.172822 -0.403649
0.166043 -0.023450 -0.181047
0.097283 0.400309 -0.695407
0.094048 0.247137 -0.876793
0.265800 0.047290 -0.161425
-0.010825 0.231987 -0.820966
0.245323 0.433590 -0.691099
0.230572 -0.211633 -0.295975
0.048335 -0.022200 -0.861492
0.063307 0.396602 -0.594082
-0.051445 -0.071969 -0.766471
-0.043922 0.282043 -0.480881
0.267449 -0.251108 -0.576005
0.005612 -0.220136 -0.463954
-0.123162 0.069526 -0.719230
0.364340 -0.101194 -0.759504
0.216529 0.295371 -0.263269
0.237811 -0.264636 -0.536689
0.382816 0.428680 -0.582100
0.475731 0.060678 -0.759956
0.306814 -0.052361 -0.181983
0.237054 -0.184647 -0.736353
0.496470 -0.108126 -0.397530
0.492302 0.347297 -0.620490
0.181937 -0.211618 -0.297889
0.369217 -0.031809 -0.192545
0.561162 0.167724 -0.637743
-0.039908 0.266814 -0.752958
0.569379 0.168382 -0.384598
0.130566 -0.193352 -0.736977
-0.103903 -0.100140 -0.638758
0.319890 -0.198599 -0.665828
0.469524 0.357982 -0.425796
-0.024105 0.209437 -0.821427
0.046302 -0.142181 -0.289150
0.281920 0.012122 -0.163979
0.418355 0.003082 -0.205944
-0.118355 0.172880 -0.676520
0.380347 0.205071 -0.849395
0.438226 0.374155 -0.415190
0.358425 0.105922 -0.176965
0.174070 0.429085 -0.499458
-0.001297 0.047591 -0.859975
0.275256 0.172002 -0.183589
-0.012575 0.275471 -0.409392
0.346564 0.230601 -0.861741
0.074272 0.341261 -0.790407
0.290520 0.193888 -0.192362
0.053141 -0.184918 -0.326240
0.395754 0.329130 -0.778860
-0.140767 0.061001 -0.508251
0.175265 0.312713 -0.292267
0.379477 -0.189455 -0.341949
0.496454 0.223942 -0.295449
-0.047234 -0.169138 -0.444096
0.097246 0.092087 -0.206935
0.072100 0.374531 -0.462558
-0.110021 -0.021097 -0.717489
-0.031964 0.220881 -0.806286
0.071557 -0.186959 -0.730243
0.350351 0.225921 -0.214920
0.478970 -0.126690 -0.554598
-0.100086 0.211728 -0.686152
0.148335 -0.220201 -0.318934
0.181659 0.109201 -0.178552
0.064514 -0.234521 -0.630229
0.419778 -0.079496 -0.729963
0.469997 0.353053 -0.415305
0.199112 -0.209448 -0.709769
0.137509 0.412793 -0.482047
0.215004 0.325102 -0.849114
0.097405 -0.262294 -0.486179
-0.031383 0.000897 -0.298026
0.181259 0.003309 -0.891123
0.369990 0.315029 -0.808114
-0.142932 0.077520 -0.527389
0.158917 0.398858 -0.751731
0.524935 0.009990 -0.659727
0.572698 0.234821 -0.527465
0.130245 0.181411 -0.906846
0.137571 -0.251461 -0.388567
-0.032109 0.037726 -0.836515
-0.046604 0.114169 -0.329338
0.007463 0.065110 -0.262177
-0.082440 0.060152 -0.789434
0.371200 0.281214 -0.256707
0.154472 -0.094227 -0.839227
0.049959 0.214329 -0.285685
0.502406 0.082252 -0.260792
-0.134172 0.118333 -0.515428
0.109193 0.151897 -0.217412
0.374570 0.144050 -0.189042
0.497353 -0.079891 -0.610440
0.080623 -0.252691 -0.576834
0.337742 0.298224 -0.262291
0.025236 -0.011567 -0.248398
-0.012872 0.206382 -0.833470
0.448592 0.116361 -0.801185
0.357855 -0.228785 -0.458958
-0.110581 0.209375 -0.570016
0.510336 0.263675 -0.343961
0.419385 0.027108 -0.801970
0.385839 0.353285 -0.337141
0.353162 -0.220960 -0.564085
0.072804 0.360572 -0.430443
0.402768 -0.068964 -0.756234
0.016077 -0.232162 -0.538742
0.047201 -0.071734 -0.248301
0.279078 -0.220022 -0.655467
0.169011 0.437711 -0.621612
0.141969 -0.182287 -0.272928
0.240355 0.449400 -0.568817
0.139779 0.383824 -0.769335
0.155984 0.076341 -0.910524
-0.001199 0.348028 -0.652828
0.464258 0.125602 -0.786988
0.572735 0.115143 -0.603310
0.500768 0.278604 -0.346326
-0.043435 0.087196 -0.833203
0.058985 -0.201084 -0.701307
0.124383 0.370744 -0.396907
-0.084369 -0.147353 -0.551981
0.332986 0.160842 -0.184086
0.557299 0.256805 -0.583983
0.031045 0.376474 -0.604110
0.150480 0.377508 -0.389207
-0.092481 -0.106312 -0.662310
0.029413 -0.127101 -0.781399
0.230827 0.154839 -0.180987
-0.081963 -0.078470 -0.396861
0.045687 -0.220138 -0.652022
0.569973 0.163526 -0.383916
-0.042572 0.260973 -0.755781
0.049267 0.378647 -0.520444
0.582618 0.198812 -0.485143
0.491986 0.266059 -0.723746
0.097463 -0.236255 -0.375904
0.504631 -0.018483 -0.672515
0.149669 0.025617 -0.898945
0.531775 0.264722 -0.381246
0.514565 0.074872 -0.275251
0.133606 -0.038077 -0.194215
0.371195 -0.138744 -0.712085
0.027847 -0.152216 -0.313113
0.416353 0.069321 -0.196310
0.207625 0.446377 -0.590755
-0.049969 -0.080538 -0.346495
0.497958 0.326261 -0.410671
0.460092 0.048053 -0.225178
-0.063589 -0.158781 -0.623878
0.006991 -0.226237 -0.553634
0.525895 0.321973 -0.560382
0.135984 -0.266717 -0.549969
0.514212 0.268782 -0.686193
0.280282 -0.258327 -0.466467
-0.100484 0.229032 -0.634239
0.219639 -0.263684 -0.421478
0.398946 -0.122817 -0.264845
0.037566 -0.226974 -0.623695
-0.030864 0.091542 -0.844005
0.019405 -0.067113 -0.267226
0.205124 0.376180 -0.798259
-0.109577 0.070317 -0.416575
0.049954 0.230414 -0.865443
0.469954 0.250429 -0.288475
0.410279 0.306808 -0.784953
0.094197 0.230686 -0.884082
0.516510 0.318217 -0.616361
0.160655 0.419248 -0.477271
0.261710 -0.205313 -0.694186
0.518623 -0.053797 -0.353743
-0.146333 0.029834 -0.622806
0.089772 0.202480 -0.251158
0.246003 -0.090660 -0.828734
0.348896 -0.083084 -0.207372
0.492280 0.195344 -0.275408
-0.111286 0.143149 -0.726212
0.133547 0.292411 -0.863028
-0.090253 -0.133318 -0.502566
0.369786 0.003568 -0.183197
0.433272 -0.012179 -0.220034
0.499158 0.021112 -0.268359
-0.071971 -0.105142 -0.706397
0.213657 0.400023 -0.396961
0.565794 0.177473 -0.622537
0.383814 0.130397 -0.188894
-0.087267 -0.101603 -0.430162
0.083643 -0.215963 -0.346685
0.237086 0.073687 -0.903635
0.196944 0.268378 -0.884112
0.440645 0.397144 -0.496336
0.224989 0.314771 -0.279053
0.297117 0.067553 -0.163098
-0.092135 0.124484 -0.771211
0.203607 0.379192 -0.364344
-0.029438 -0.132468 -0.358404
0.440602 0.398497 -0.591682
0.300769 -0.111233 -0.790431
0.506405 -0.100809 -0.417353
-0.011916 0.335170 -0.537640
0.077237 -0.254981 -0.469277
0.411792 0.145759 -0.203621
0.121068 -0.253673 -0.405915
0.322508 0.228139 -0.211381
-0.140170 -0.028911 -0.574039
0.090652 0.251740 -0.873303
0.271890 -0.245656 -0.592365
0.272791 0.397073 -0.764805
-0.088260 -0.022567 -0.379654
-0.081798 -0.044586 -0.376722
0.107868 0.121277 -0.908420
-0.004011 0.021439 -0.851971
0.122941 0.146694 -0.209142
0.115556 -0.231878 -0.354293
0.517900 0.322186 -0.601783
0.303890 0.439061 -0.653831
0.494375 0.059132 -0.254285
0.346887 -0.191291 -0.653332
-0.084544 -0.116874 -0.663808
0.131925 0.340022 -0.823038
0.225530 -0.066401 -0.850503
0.102416 -0.256492 -0.582670
0.209473 -0.233869 -0.332345
0.419007 0.002259 -0.790371
0.167137 0.436818 -0.626760
0.551450 0.270038 -0.585532
-0.131052 0.101528 -0.488074
0.118622 -0.165826 -0.266180
0.300453 0.008923 -0.866212
-0.065184 0.108679 -0.810383
0.533429 0.067097 -0.679428
0.246917 -0.242228 -0.623076
0.264532 0.400631 -0.760930
0.320691 0.202209 -0.879930
0.207700 -0.164777 -0.769351
0.253350 0.091689 -0.903068
-0.055740 -0.179277 -0.557449
0.389652 -0.208580 -0.519860
0.547107 -0.010847 -0.580923
-0.009419 0.106709 -0.286209
0.436605 -0.178514 -0.471295
0.534960 0.312136 -0.526424
0.279421 -0.182767 -0.266829
0.458284 -0.155157 -0.420286
0.131230 -0.145647 -0.244678
-0.004779 -0.162844 -0.359317
0.315626 0.443187 -0.523620
0.274613 0.438475 -0.670171
0.401292 -0.138209 -0.680831
0.320983 -0.131561 -0.229747
-0.090219 -0.135394 -0.592931
-0.023427 0.310937 -0.494512
0.230526 0.439726 -0.499919
0.264669 -0.233492 -0.343207
0.376805 0.338399 -0.314094
0.456998 -0.139395 -0.584472
0.095597 0.130261 -0.217082
0.390280 0.285227 -0.266835
0.241220 0.374679 -0.346742
0.485842 0.318174 -0.376532
0.272535 -0.025532 -0.170113
0.284950 0.444777 -0.636576
0.009093 -0.040797 -0.834132
0.121213 0.126039 -0.910749
0.162003 -0.110133 -0.826998
0.213923 0.187448 -0.908427
-0.041989 0.230813 -0.786749
0.227883 0.248547 -0.225986
0.001778 0.032795 -0.858520
0.581028 0.132300 -0.574413
0.081174 0.010053 -0.884287
-0.024430 0.315262 -0.696564
0.418165 0.273791 -0.270740
-0.131073 -0.060154 -0.572768
-0.136267 0.103982 -0.511610
0.040505 -0.103702 -0.267822
0.062284 -0.117403 -0.805195
0.349191 -0.170254 -0.282642
0.045691 -0.244447 -0.481483
0.111751 -0.242751 -0.637455
-0.038618 0.278375 -0.739002
0.023742 0.027976 -0.246686
0.084282 -0.259489 -0.521741
0.278283 -0.231522 -0.345246
-0.017413 0.233017 -0.368282
0.383649 -0.100833 -0.235479
0.361704 0.304249 -0.820439
-0.092558 0.235617 -0.664533
0.075234 -0.240623 -0.408539
0.159711 0.400410 -0.749070
-0.039729 0.136897 -0.330242
0.154861 -0.198140 -0.286540
0.480661 0.363464 -0.468288
-0.098633 0.215562 -0.515787
0.088952 -0.156764 -0.774791
0.013826 -0.081539 -0.277903
0.062551 0.350970 -0.424736
-0.096024 -0.130884 -0.561502
0.450705 -0.124320 -0.630064
0.126518 -0.268009 -0.522694
0.307278 -0.174569 -0.266333
0.299939 0.045394 -0.879040
0.526156 0.280240 -0.390347
-0.098819 -0.121331 -0.600661
0.369030 0.334503 -0.306564
0.453451 0.263061 -0.284868
-0.048713 0.260637 -0.453011
-0.148646 0.053641 -0.602832
-0.140783 0.093668 -0.653202
0.094082 -0.220500 -0.346918
0.074598 0.152113 -0.236565
0.112750 0.013146 -0.194880
-0.044155 -0.159174 -0.667890
-0.121108 -0.055069 -0.656088
0.172846 -0.028694 -0.877920
0.574134 0.226562 -0.471601
0.030285 0.053384 -0.242831
0.080701 0.035313 -0.891595
0.578483 0.115795 -0.582336
0.152646 0.432070 -0.551122
0.112061 -0.211081 -0.705810
0.312151 0.446755 -0.563981
0.420053 0.412813 -0.539772
0.515117 0.312534 -0.420833
0.401676 0.419983 -0.591551
0.472734 0.348401 -0.664256
-0.041440 -0.170161 -0.649062
-0.027941 -0.095989 -0.327698
0.578085 0.117129 -0.584316
0.580889 0.202127 -0.470793
0.435734 -0.051737 -0.239861
0.232460 -0.191511 -0.269667
0.199724 0.057414 -0.167986
-0.111606 0.110371 -0.436674
0.471476 -0.141770 -0.525675
0.124718 0.179450 -0.906287
0.564230 0.095183 -0.358035
0.309635 -0.235501 -0.380824
0.071322 -0.220723 -0.365354
-0.135638 0.031366 -0.483630
0.257911 -0.262351 -0.521704
0.354030 0.176263 -0.193464
0.146971 -0.180032 -0.756224
0.023471 0.098460 -0.255299
0.241445 0.253604 -0.227170
0.251603 -0.029871 -0.170730
0.113279 -0.144045 -0.793525
0.474122 0.168018 -0.777214
-0.005832 0.173035 -0.310746
0.160694 0.380814 -0.388333
0.123065 -0.267007 -0.477660
0.557864 -0.019377 -0.495376
0.081831 0.118550 -0.902189
0.538571 0.207871 -0.341292
0.197826 -0.246894 -0.631993
-0.026688 0.328782 -0.605803
-0.075320 0.142466 -0.790868
0.464283 -0.148824 -0.526556
0.091964 0.322474 -0.822985
0.508021 -0.086607 -0.381825
-0.007418 -0.145320 -0.343037
-0.072668 0.257011 -0.692789
-0.084938 0.188471 -0.751829
0.446590 0.337582 -0.358760
0.294275 0.388508 -0.364215
0.410943 0.411643 -0.616434
0.589553 0.113401 -0.477961
0.489514 -0.083884 -0.332295
0.521136 0.037676 -0.291473
-0.017794 -0.207553 -0.580358
0.361014 0.435857 -0.543570
0.502663 0.067095 -0.728396
0.232307 -0.191743 -0.727982
0.096899 0.230544 -0.264048
0.547380 0.282735 -0.459791
0.174121 0.435831 -0.647752
0.218484 0.439736 -0.663369
0.411484 0.368636 -0.719888
0.126048 0.099921 -0.910664
0.579186 0.168938 -0.419077
0.060399 0.280934 -0.841060
0.126490 -0.101754 -0.832222
0.260161 -0.135431 -0.219665
0.464051 0.283085 -0.748424
0.319292 -0.234872 -0.571101
-0.061743 0.266798 -0.705800
-0.086156 0.006244 -0.369882
0.190527 0.211720 -0.904577
-0.076282 0.260158 -0.535452
0.051182 -0.223788 -0.392749
0.149691 0.179234 -0.210732
0.052864 0.319256 -0.384689
0.066171 -0.190300 -0.722781
0.583830 0.087354 -0.433768
-0.129060 0.105955 -0.483911
0.376798 -0.217351 -0.439738
0.275863 -0.212346 -0.673230
-0.037759 -0.195641 -0.552858
0.286404 0.413213 -0.411093
0.296303 0.314604 -0.842680
0.053700 0.384224 -0.533126
0.398311 0.032697 -0.820853
0.009677 0.354009 -0.668090
0.027433 0.193977 -0.867481
0.521642 0.309571 -0.431716
-0.102600 -0.093047 -0.462210
0.181796 -0.188041 -0.744409
-0.024784 -0.178848 -0.414649
0.057648 0.146272 -0.892423
0.399924 0.421178 -0.526674
0.263563 0.113630 -0.902924
0.095813 0.182729 -0.899167
0.370182 0.367066 -0.758787
0.125390 -0.188938 -0.742515
-0.089177 -0.005907 -0.376986
0.128703 -0.162154 -0.776334
0.304739 0.446235 -0.608208
0.065086 0.372689 -0.727222
0.195856 -0.263410 -0.414537
0.309953 0.130239 -0.172775
-0.133855 -0.037537 -0.625158
0.188083 -0.130578 -0.807655
0.229496 0.080506 -0.165271
0.313532 0.279970 -0.244086
0.548466 -0.038102 -0.503887
0.143974 -0.258396 -0.407780
0.154781 -0.205611 -0.295963
0.245037 0.236510 -0.892674
-0.124586 0.080725 -0.456709
-0.018623 0.315933 -0.494761
0.282661 0.252833 -0.878709
0.140405 -0.258589 -0.595567
0.358551 0.430243 -0.494342
-0.116578 0.003264 -0.430950
0.164095 -0.093345 -0.839749
0.440948 0.137176 -0.809879
0.578546 0.154948 -0.408550
-0.140922 -0.025488 -0.568799
-0.047165 0.141329 -0.824291
-0.111826 0.033897 -0.738840
0.011541 0.290115 -0.394624
-0.100510 -0.012885 -0.399639
-0.062101 0.258460 -0.481470
0.160535 0.435474 -0.562706
0.518696 0.169175 -0.720105
0.476076 0.303439 -0.716811
0.271069 0.370681 -0.800026
-0.118964 0.042463 -0.433694
0.347920 0.349798 -0.791879
0.259724 -0.223072 -0.661588
0.474379 0.254325 -0.295312
0.508727 0.345234 -0.523584
-0.030571 0.227615 -0.803280
0.254776 -0.050289 -0.176431
0.156480 0.428540 -0.664980
0.093602 -0.034349 -0.868915
0.243682 0.277816 -0.244028
0.510280 -0.084251 -0.564032
0.172972 -0.176606 -0.258697
-0.052797 0.144893 -0.351008
0.204981 -0.054288 -0.180904
-0.073952 -0.112249 -0.693452
0.290881 -0.073904 -0.188001
-0.032616 0.036441 -0.835818
0.068986 -0.041112 -0.859335
0.040422 -0.238688 -0.580504
0.070336 0.039023 -0.215763
0.579795 0.079398 -0.415383
0.577705 0.206654 -0.553277
0.121368 0.041248 -0.900850
0.574548 0.028590 -0.451492
0.059506 -0.243317 -0.592453
0.480446 0.321514 -0.374044
0.464726 0.122544 -0.786199
-0.020120 -0.154565 -0.369715
0.557680 0.070627 -0.347338
-0.103244 -0.096003 -0.649459
0.398240 0.168243 -0.842678
0.016938 0.366023 -0.617745
0.434933 0.157319 -0.218551
-0.034196 -0.084701 -0.773442
0.191133 -0.207820 -0.291378
-0.111211 0.143561 -0.726151
-0.095661 0.239426 -0.584955
0.019119 -0.206869 -0.397912
0.476137 -0.068155 -0.293620
-0.133382 0.025812 -0.683653
0.557082 0.197609 -0.370937
0.523611 0.116921 -0.711009
0.233346 -0.182085 -0.741078
0.338577 -0.177444 -0.285459
0.193366 -0.138824 -0.799221
0.492127 0.353855 -0.600618
0.349109 -0.222408 -0.390082
0.398464 0.393241 -0.691928
0.315464 -0.201866 -0.308212
0.180555 0.169921 -0.196750
0.194641 0.440942 -0.639352
0.111549 -0.150727 -0.786379
0.174347 0.166137 -0.912834
0.453686 0.145842 -0.226942
0.583799 0.075379 -0.445024
0.147228 -0.267199 -0.553460
0.147971 -0.261112 -0.587009
0.250058 0.448402 -0.618064
0.052170 0.107901 -0.892223
0.323599 -0.095535 -0.791842
0.297758 -0.253126 -0.499914
0.133856 0.426418 -0.556085
-0.058622 0.282007 -0.527767
0.287065 0.398130 -0.759320
-0.027223 0.202224 -0.822112
0.320020 -0.184635 -0.690255
0.082355 0.234361 -0.275853
0.219880 0.412906 -0.741234
0.434336 0.228953 -0.249167
0.135603 0.417077 -0.687816
0.282918 0.149052 -0.176103
0.427005 0.218278 -0.813234
0.348527 0.143286 -0.872523
0.218259 0.256171 -0.888700
0.194173 0.156050 -0.913447
-0.059762 0.291805 -0.620494
-0.129897 -0.018070 -0.479221
-0.100001 -0.123354 -0.579449
0.582957 0.090123 -0.426471
0.526305 0.284585 -0.397077
0.368343 -0.018037 -0.817912
-0.146521 0.011905 -0.600972
-0.026003 -0.174198 -0.667523
0.298044 0.428915 -0.453079
0.172731 0.107705 -0.914141
0.362309 -0.198518 -0.340952
0.231556 0.240722 -0.893204
0.257350 -0.138925 -0.221990
0.477147 0.186784 -0.257996
0.494857 0.172624 -0.268320
0.081622 -0.203107 -0.328319
0.233622 -0.043087 -0.174790
0.573613 0.232489 -0.524317
0.210586 0.167117 -0.911396
0.472665 0.053950 -0.760927
0.248620 0.057953 -0.897938
0.099527 0.103923 -0.208183
0.136499 0.276160 -0.276348
0.119799 -0.172443 -0.271785
0.296211 0.264029 -0.870202
0.021803 -0.224001 -0.609714
0.215604 0.217382 -0.210036
0.483546 0.339964 -0.411059
-0.116664 -0.033912 -0.692606
0.040011 0.053994 -0.882093
0.354306 0.407430 -0.706804
0.559533 0.111995 -0.640099
0.294816 0.437202 -0.666786
0.347468 0.037270 -0.854720
-0.061852 0.099560 -0.814806
0.193403 0.109058 -0.913576
0.023785 0.360030 -0.517297
0.434785 0.061245 -0.206749
-0.065794 -0.164999 -0.498648
0.048214 -0.191376 -0.338917
0.170730 0.389044 -0.773463
0.471285 0.289409 -0.323791
0.530447 -0.013739 -0.336213
0.403932 0.283977 -0.804637
0.207285 -0.060357 -0.182548
0.515790 0.196284 -0.719778
0.011428 -0.005514 -0.851692
0.350552 0.363950 -0.337468
0.226357 -0.157938 -0.235956
0.320441 0.419511 -0.704194
0.069442 0.153103 -0.895972
0.436949 -0.119339 -0.660914
0.539966 -0.040388 -0.398752
-0.022532 -0.171229 -0.396972
0.209504 0.317712 -0.854737
0.538686 -0.008197 -0.610343
0.505443 0.245782 -0.321412
0.155163 0.230885 -0.897142
0.212453 -0.269988 -0.466642
0.444141 0.313949 -0.746977
0.459221 -0.124353 -0.613328
0.572741 0.233555 -0.533020
0.055449 -0.064452 -0.841772
0.072651 -0.157545 -0.768714
-0.037191 -0.166184 -0.665816
-0.060243 0.258341 -0.724655
0.291823 -0.025307 -0.853928
-0.079005 -0.150652 -0.588103
0.065946 -0.170961 -0.749802
0.022528 -0.214171 -0.409388
0.461355 0.267328 -0.761244
0.389805 0.302932 -0.282183
0.465465 0.235971 -0.771450
0.574177 0.151879 -0.601196
0.007595 0.297801 -0.410803
0.176788 -0.182465 -0.752311
0.526104 -0.016580 -0.631871
0.565577 0.020716 -0.405278
-0.105793 -0.115218 -0.564504
-0.132725 0.068312 -0.692802
0.193863 0.362708 -0.813241
-0.041943 0.290407 -0.494331
0.389948 -0.205759 -0.412868
0.099837 0.120098 -0.906737
0.208676 -0.188135 -0.265844
0.060924 -0.111705 -0.258210
0.190993 0.042675 -0.169300
0.157161 0.046101 -0.904678
-0.142881 0.096149 -0.543424
0.284875 0.438587 -0.666112
0.451176 0.014041 -0.765965
0.163923 -0.254111 -0.615038
0.077620 -0.240587 -0.405689
0.146910 0.427711 -0.532490
0.546961 -0.034077 -0.418237
0.226334 -0.076893 -0.186809
-0.027145 0.323845 -0.554258
0.165576 0.143385 -0.914401
0.584235 0.179672 -0.459068
0.326815 0.442577 -0.607936
0.250159 -0.157700 -0.765380
0.282970 0.355564 -0.316740
-0.038870 -0.089757 -0.764596
0.394324 -0.186217 -0.355643
0.084466 0.324511 -0.816735
0.084630 -0.250614 -0.592090
0.086088 0.392024 -0.489988
-0.124312 0.172205 -0.551276
0.407443 -0.117792 -0.266880
0.548082 0.146480 -0.669666
-0.109164 0.181612 -0.699144
0.392843 -0.145954 -0.679375
-0.127869 0.136873 -0.679970
-0.051598 -0.168613 -0.629472
0.569143 0.183557 -0.609873
0.395569 -0.100427 -0.242767
0.046160 -0.246017 -0.538848
-0.081539 -0.089722 -0.708762
0.025333 -0.237208 -0.516457
0.444643 0.396275 -0.588538
0.356086 0.125305 -0.179656
0.404450 0.401791 -0.663884
0.247312 0.048310 -0.895862
-0.130437 0.151054 -0.543758
0.034564 -0.175969 -0.726149
0.161077 -0.057732 -0.190941
0.546521 0.057916 -0.327461
0.345946 0.332081 -0.296874
-0.011709 0.282612 -0.775732
0.356895 0.388846 -0.379495
0.354356 0.224822 -0.215233
0.525148 0.127930 -0.710031
0.532441 0.301166 -0.598328
0.060879 -0.003897 -0.223166
0.427555 0.339059 -0.740204
-0.044316 0.267836 -0.743685
-0.127782 0.095150 -0.703496
0.539248 0.208691 -0.343007
0.030095 0.275438 -0.355209
-0.125489 -0.037150 -0.663448
-0.002692 -0.050910 -0.821373
0.403585 0.386599 -0.405027
-0.026695 0.275769 -0.762893
0.428760 0.296562 -0.776003
0.327807 0.417021 -0.428166
0.266717 -0.260580 -0.450973
0.125159 0.297429 -0.857301
0.369205 -0.218460 -0.417799
0.095510 0.235009 -0.882734
0.096277 0.400719 -0.692446
0.227696 -0.040461 -0.865172
0.234091 -0.102105 -0.198154
0.216525 0.402156 -0.400083
0.540848 0.130126 -0.683072
0.518637 0.300415 -0.406049
0.462521 0.384593 -0.579818
-0.099632 0.209002 -0.692522
0.222642 0.158146 -0.183269
-0.060137 0.224281 -0.765567
-0.056983 -0.071233 -0.351084
0.179113 0.438277 -0.543423
0.165346 -0.224611 -0.687037
-0.147798 0.039656 -0.613102
0.059411 0.021547 -0.881555
-0.025633 -0.149234 -0.711097
0.452200 0.333007 -0.357732
0.410452 0.216922 -0.826497
0.337921 0.259788 -0.855725
0.539127 0.142189 -0.313249
0.315858 -0.019053 -0.846786
-0.017069 -0.015619 -0.829896
0.493588 -0.114729 -0.407783
-0.002366 -0.110305 -0.777222
0.477513 -0.131793 -0.402579
-0.125426 -0.005946 -0.457942
0.397307 -0.201165 -0.412833
-0.144998 0.077662 -0.542085
-0.142286 0.088448 -0.647403
0.283722 0.102849 -0.896197
0.177910 -0.150549 -0.789216
0.030922 0.287055 -0.367369
0.015604 -0.158504 -0.331130
0.360909 0.435130 -0.533260
0.467903 0.179925 -0.247863
0.175671 -0.272053 -0.483913
0.438746 -0.157870 -0.367991
0.146542 -0.147515 -0.793193
0.080511 0.374466 -0.741756
0.119242 -0.228054 -0.675300
0.134417 0.043885 -0.902894
0.429943 0.257282 -0.797024
0.216313 0.445141 -0.629065
0.220686 -0.120510 -0.811111
0.090380 -0.137171 -0.795589
0.533956 0.141022 -0.696287
0.033625 -0.045343 -0.249209
0.114264 -0.206659 -0.713797
-0.005964 0.088640 -0.278275
0.029815 0.111283 -0.882484
0.586398 0.137425 -0.441231
0.277572 0.051521 -0.161600
0.366263 -0.198979 -0.611384
0.186079 0.096591 -0.175122
0.401944 -0.202760 -0.446649
0.334596 -0.167442 -0.704943
0.532837 -0.029287 -0.357886
0.524240 0.217854 -0.699129
0.384153 -0.191340 -0.352652
0.516116 -0.090917 -0.509950
0.457821 0.006188 -0.754489
0.393989 0.412744 -0.647135
0.461090 0.355671 -0.672536
0.392557 -0.120551 -0.257772
0.295045 -0.174887 -0.722323
-0.027905 0.287611 -0.744562
0.505185 0.198763 -0.734579
-0.016333 -0.111168 -0.324382
-0.110874 -0.034511 -0.431260
-0.031454 0.079648 -0.301992
0.324567 -0.084538 -0.800292
-0.057385 -0.163881 -0.460083
0.309664 -0.235824 -0.582288
0.163155 -0.247735 -0.634203
0.031642 -0.107623 -0.800379
-0.128448 -0.067499 -0.563287
0.588313 0.164467 -0.499062
0.410920 0.417106 -0.537036
-0.002737 -0.160667 -0.354133
0.578681 0.045023 -0.512549
0.077518 0.043497 -0.211850
-0.047299 0.034920 -0.314611
0.284519 0.447075 -0.620618
0.252654 0.192980 -0.901900
-0.012952 0.094431 -0.857474
0.029192 -0.237729 -0.551858
0.268079 0.211579 -0.200706
0.420648 0.273962 -0.272232
0.145933 0.380182 -0.778055
-0.075698 0.031140 -0.352169
0.370645 0.020820 -0.835029
0.589801 0.125091 -0.504731
0.112983 -0.060222 -0.858438
0.080767 0.313893 -0.350773
-0.017847 0.209653 -0.348626
0.242676 0.440118 -0.667362
0.021585 -0.210999 -0.649058
0.302149 0.100415 -0.166577
-0.103873 -0.098625 -0.642096
0.040731 -0.106723 -0.269341
0.309154 -0.249375 -0.497735
-0.085251 0.257107 -0.599591
0.010133 0.253051 -0.825531
0.176355 0.141369 -0.914643
0.315767 0.323750 -0.282783
0.279137 0.355316 -0.814320
-0.087635 0.136813 -0.401590
0.054953 -0.193636 -0.711568
0.227832 -0.268869 -0.502905
0.085110 0.089858 -0.212863
0.122329 -0.122430 -0.232608
0.377118 -0.212134 -0.544268
-0.015887 0.056701 -0.852140
-0.106593 -0.045811 -0.705479
0.135045 0.180222 -0.907779
0.125465 0.148591 -0.208682
0.101484 -0.205194 -0.712861
-0.019131 0.309662 -0.722474
0.428830 -0.106667 -0.275552
0.171968 -0.091160 -0.200860
0.333309 0.442396 -0.544198
0.457856 -0.120716 -0.623066
0.094980 0.171520 -0.901102
0.248919 0.068058 -0.162554
0.042969 0.382103 -0.641692
-0.086537 -0.040060 -0.745641
0.003032 0.224429 -0.837572
0.280670 0.271319 -0.236392
0.568835 0.243945 -0.538374
0.261735 0.396164 -0.378237
0.365471 0.312778 -0.812482
0.402973 0.079793 -0.832030
0.460293 0.108128 -0.788742
0.005846 0.118846 -0.275810
0.558103 0.089745 -0.636589
-0.097162 0.006086 -0.754846
0.076562 0.263882 -0.860811
0.437398 0.403359 -0.540162
0.306293 0.418144 -0.424953
-0.090549 0.248033 -0.620853
0.210560 0.444957 -0.624589
0.006584 0.319808 -0.449402
0.315036 0.239479 -0.872729
0.163259 -0.248993 -0.630649
-0.105090 -0.022164 -0.726498
0.130536 0.025303 -0.897570
0.557212 0.089999 -0.638895
0.389432 -0.154996 -0.293981
-0.085481 -0.135259 -0.484772
-0.116197 -0.034728 -0.693067
-0.017028 0.323790 -0.693196
0.321319 0.284370 -0.851590
0.536601 0.284101 -0.422165
0.521988 -0.007777 -0.315226
0.413958 0.377175 -0.703516
0.560830 0.093296 -0.631027
-0.097787 0.079805 -0.768465
0.322118 -0.182093 -0.282396
0.530996 0.291378 -0.622396
0.314799 0.340933 -0.815835
-0.048404 0.014829 -0.816351
0.556938 0.064318 -0.626880
0.482284 0.241127 -0.749979
-0.008328 0.280605 -0.782307
0.200472 0.425144 -0.708224
0.061331 -0.232334 -0.633767
0.334140 0.442364 -0.592378
0.040734 0.374960 -0.674476
0.547030 0.004117 -0.359684
0.518188 0.317783 -0.611811
0.214153 0.187204 -0.908446
0.188738 0.309364 -0.283999
0.172846 0.390834 -0.399152
-0.115358 0.198048 -0.564961
0.518953 0.325468 -0.587213
0.120681 -0.267594 -0.504043
0.041936 0.373548 -0.683409
0.136757 -0.250674 -0.386728
0.450108 0.311018 -0.742866
0.029551 0.367619 -0.531232
0.222014 0.430671 -0.697925
-0.002746 -0.220374 -0.555495
0.489587 -0.125317 -0.437170
0.535583 0.148020 -0.693549
-0.131329 0.138725 -0.662155
0.528938 0.067067 -0.295611
0.421116 0.369330 -0.707794
0.203243 -0.042615 -0.868198
0.387468 0.212704 -0.218728
0.010460 -0.217787 -0.611609
0.173930 -0.220977 -0.693377
0.384900 -0.034404 -0.200237
-0.132446 0.131290 -0.665120
0.217393 -0.017609 -0.878391
0.566465 0.152321 -0.625404
-0.004426 -0.203972 -0.629613
-0.102016 -0.118972 -0.524275
0.384479 -0.183970 -0.620217
0.453087 0.299512 -0.749014
0.562165 0.252919 -0.457412
-0.006648 0.239070 -0.360402
0.433648 -0.109699 -0.283645
-0.091108 0.013567 -0.377436
0.289252 0.074576 -0.162961
0.408728 -0.080111 -0.237164
0.334816 0.333378 -0.813391
-0.056880 -0.033874 -0.335369
0.523529 0.327373 -0.540759
-0.058023 0.231753 -0.761996
0.096059 0.361470 -0.778040
0.345993 -0.201215 -0.633393
0.097330 -0.106949 -0.823761
-0.046372 0.119794 -0.828839
0.436294 0.250757 -0.794246
0.586079 0.136381 -0.546713
0.245558 0.102579 -0.166728
-0.013955 0.320208 -0.493850
0.396453 -0.032565 -0.205262
0.118878 0.278491 -0.867841
0.113856 -0.265438 -0.479140
-0.140591 0.015642 -0.650320
-0.116139 0.196366 -0.565338
0.526018 -0.078246 -0.449417
0.284759 -0.226988 -0.635111
0.358328 0.276346 -0.838082
-0.020981 -0.207491 -0.564550
0.408440 0.246892 -0.246628
0.355289 -0.081756 -0.209149
0.197778 -0.128804 -0.807985
-0.139298 0.001098 -0.508915
0.555868 0.250119 -0.600504
0.026666 0.178863 -0.871589
0.184720 -0.126726 -0.811511
0.265991 0.044858 -0.161441
0.168310 0.105619 -0.913989
0.226706 -0.205353 -0.286845
0.332503 -0.207176 -0.329957
0.071599 0.353486 -0.418361
-0.083200 -0.048912 -0.381144
-0.036261 0.124558 -0.837595
0.035932 0.367208 -0.510970
-0.066953 0.167221 -0.792837
0.554674 -0.018397 -0.530763
0.051901 0.261637 -0.320718
0.309687 0.203451 -0.883928
0.034029 -0.078174 -0.260271
0.114486 -0.260306 -0.573720
0.052906 -0.101040 -0.815268
0.156586 0.433260 -0.551248
0.192077 0.421320 -0.457524
0.177103 0.401146 -0.417291
0.043607 0.383697 -0.629956
0.138396 0.164450 -0.910583
0.067300 -0.020073 -0.221633
-0.043979 -0.142711 -0.392187
0.033606 0.356395 -0.482355
0.589168 0.110764 -0.506621
0.100073 0.313141 -0.835645
0.162637 -0.271856 -0.504275
0.482588 -0.001012 -0.258215
0.462070 0.106721 -0.786724
0.248196 -0.260662 -0.550733
0.311859 -0.125725 -0.222376
0.415598 0.296905 -0.289205
0.551900 0.202789 -0.649775
0.009919 -0.148047 -0.746005
-0.114255 0.192596 -0.660068
0.208265 0.444839 -0.622797
0.089000 -0.007522 -0.879743
0.015134 0.306230 -0.412631
0.375344 -0.202232 -0.586846
-0.062282 -0.162810 -0.615112
0.556499 0.154758 -0.347856
0.051389 0.145536 -0.889976
0.188231 -0.227260 -0.321318
0.458665 0.316064 -0.341594
0.141190 -0.239512 -0.357061
-0.036601 0.229647 -0.392004
0.317566 0.203522 -0.198468
-0.093918 -0.133740 -0.539816
-0.066019 -0.145369 -0.442917
0.156630 0.042273 -0.178126
0.401650 -0.169075 -0.329618
0.092408 -0.195513 -0.725388
0.233713 -0.229876 -0.660478
0.008510 0.304787 -0.773833
0.316626 0.318944 -0.832386
0.332841 -0.211259 -0.625414
0.468701 0.367763 -0.450823
0.118329 0.338262 -0.352254
0.387707 0.275186 -0.257810
0.277581 0.434834 -0.682123
0.385936 0.247918 -0.833879
0.505929 0.333823 -0.613304
0.229862 -0.039811 -0.174134
0.064385 0.205222 -0.269253
-0.037456 0.004922 -0.304265
0.054628 -0.036159 -0.857183
0.330684 0.437261 -0.500342
0.271973 -0.256323 -0.426384
0.311167 -0.076729 -0.192948
-0.038756 -0.185732 -0.466614
0.583580 0.195799 -0.496199
0.316752 -0.190564 -0.291357
0.515682 0.319066 -0.617132
0.501181 0.076961 -0.259729
0.396676 -0.204396 -0.517723
0.320991 -0.048885 -0.183610
0.331157 -0.240484 -0.504006
0.079656 0.237250 -0.876009
0.508009 0.158202 -0.277019
0.457780 -0.157828 -0.508819
0.084036 0.304784 -0.835091
0.204380 -0.267024 -0.550609
0.392048 0.413168 -0.648892
0.146479 -0.145570 -0.795154
-0.000261 0.113892 -0.865634
0.462982 0.384190 -0.506321
0.532458 -0.010051 -0.337324
0.007661 0.280506 -0.387368
0.314566 -0.239838 -0.557441
0.573973 0.067318 -0.573688
0.127246 0.396449 -0.737572
0.303070 0.104943 -0.889833
0.281188 0.271264 -0.871441
0.363462 0.435745 -0.560740
0.331357 0.321371 -0.824335
0.582647 0.059701 -0.463000
0.270935 0.405146 -0.394340
0.320768 0.426036 -0.687198
0.465183 0.324109 -0.710847
0.408323 0.099167 -0.193836
0.553306 0.033505 -0.613879
-0.053526 0.052209 -0.323353
0.049005 0.385285 -0.646432
0.161329 -0.179027 -0.757586
0.134561 0.240448 -0.890514
0.201136 0.408598 -0.746941
0.094516 -0.067505 -0.850858
0.150978 -0.234611 -0.666247
0.347133 0.176531 -0.871765
0.432250 -0.080707 -0.256122
0.357530 0.034116 -0.848026
0.335858 -0.120484 -0.761045
0.453963 -0.042821 -0.250521
-0.018086 0.313600 -0.487424
0.349067 0.406641 -0.712592
0.508239 -0.095772 -0.537682
0.377618 -0.055951 -0.205797
0.477941 -0.026636 -0.265651
-0.118851 0.191757 -0.573963
0.243283 0.420333 -0.726192
0.566404 0.245945 -0.554415
0.418136 0.345062 -0.743273
0.302122 0.438477 -0.489035
0.251512 -0.191989 -0.720271
0.138831 0.125993 -0.913033
0.242401 0.449726 -0.590356
0.385786 0.347027 -0.769630
0.341258 -0.028889 -0.828414
0.130104 0.294759 -0.296267
0.434503 -0.176971 -0.427510
0.047159 0.361384 -0.728119
0.510083 -0.022222 -0.659077
0.235631 0.353349 -0.319074
0.487425 -0.028147 -0.277652
0.420385 0.047586 -0.199451
0.023223 -0.201196 -0.381143
0.376326 0.034030 -0.836532
0.473194 -0.135279 -0.398511
0.057182 0.228873 -0.290033
-0.101950 -0.095437 -0.654606
0.081331 -0.076395 -0.229311
0.377032 0.427543 -0.612828
0.525914 -0.058885 -0.383001
0.516454 -0.065150 -0.365365
0.476871 0.375253 -0.523724
0.486775 0.365659 -0.508813
0.496157 0.156886 -0.264339
-0.116827 -0.040322 -0.450906
-0.111483 0.134515 -0.451972
0.531097 0.276859 -0.642407
0.126076 -0.267579 -0.478771
0.458973 0.017181 -0.759306
0.195875 0.423926 -0.462752
0.497020 0.124220 -0.257801
0.456083 -0.080771 -0.684055
0.413042 0.307483 -0.297998
0.064067 0.379554 -0.490232
0.339037 0.426100 -0.460077
0.147504 0.026964 -0.181094
0.225784 -0.229941 -0.325889
0.481329 0.140842 -0.769690
0.044324 -0.162394 -0.750295
0.539321 -0.043890 -0.546756
-0.089531 0.245809 -0.559386
0.183733 0.044228 -0.170908
0.307442 -0.248956 -0.513138
0.363274 0.094424 -0.860409
0.358666 -0.140458 -0.721176
-0.032454 -0.039491 -0.806195
0.217765 -0.266568 -0.544165
0.378575 0.402412 -0.420408
0.322748 0.298415 -0.843225
0.002446 -0.186649 -0.680520
0.457868 -0.050080 -0.713251
0.223297 -0.269121 -0.510369
-0.031250 0.265439 -0.768391
0.244862 0.037619 -0.162172
0.356461 0.395816 -0.392592
0.307853 -0.014779 -0.852543
0.349381 0.438665 -0.540345
0.588131 0.141244 -0.456962
0.298173 -0.190079 -0.697577
0.508745 0.105726 -0.731091
0.452699 -0.112387 -0.646588
-0.058337 -0.161448 -0.456665
0.037430 0.352257 -0.733775
0.257207 -0.011174 -0.872370
0.015630 0.263917 -0.822115
0.001601 0.016154 -0.853760
0.462891 -0.123693 -0.606778
0.394192 -0.163831 -0.311729
0.234042 0.434345 -0.688068
-0.048489 0.239621 -0.769613
-0.072542 0.209584 -0.757432
-0.046492 -0.033732 -0.322058
0.041903 0.382024 -0.636252
0.054046 0.336364 -0.779987
0.165028 0.321623 -0.848298
0.583089 0.059639 -0.490664
0.235047 0.238437 -0.893530
-0.090318 0.180254 -0.441093
0.567815 0.034377 -0.398641
0.365751 -0.124359 -0.243869
0.370971 0.343008 -0.317303
0.142843 -0.034877 -0.874849
0.374298 -0.216908 -0.425257
