ply
format ascii 1.0
element vertex 1649
property float x
property float y
property float z
end_header
0.440359 -0.798778 -0.275287
0.286762 0.158988 -0.333950
0.427759 -0.815024 -0.065880
0.362202 -0.430212 -0.076278
-0.141557 -0.471820 -0.051279
-0.229030 -0.089100 -0.238705
0.462504 -0.527758 -0.160174
-0.385922 -0.186761 -0.169806
0.059922 0.169367 -0.111053
-0.326013 -0.345913 -0.594448
-0.015082 -0.280599 -0.813035
0.373228 -0.075201 -0.591151
-0.165109 -0.190124 -0.722794
-0.218350 -0.132365 -0.405037
0.530413 -0.915275 -0.101352
-0.286668 -0.132943 -0.239190
-0.160145 -0.515168 -0.233405
0.165420 0.164304 -0.386449
-0.492690 -0.279425 -0.207779
-0.377898 -0.328915 -0.055136
0.287247 -0.460832 -0.010729
0.394402 -0.233729 -0.250298
-0.209343 -0.156726 -0.506041
0.127094 0.005665 -0.806101
0.594977 -0.947910 -0.113756
0.393959 -0.631013 -0.044198
0.044796 0.074088 -0.382476
0.191405 0.213111 -0.292184
0.075910 -0.474849 0.037208
-0.030083 -0.035104 0.098666
0.517309 -0.803011 -0.088670
-0.292793 -0.108117 -0.143756
0.279486 0.204334 -0.536846
0.350564 0.050936 -0.606033
0.231930 -0.410094 -0.655211
-0.105566 -0.233392 -0.861051
0.009924 -0.497484 0.012674
-0.071933 -0.556545 -0.331726
-0.211887 -0.142032 -0.452208
-0.334075 -0.239173 -0.466822
0.096895 0.161798 -0.226336
0.197258 -0.646635 -0.407543
0.489331 -0.528475 -0.236198
0.041470 -0.612499 -0.102033
-0.047483 -0.155702 -0.900092
0.056649 -0.132561 0.066976
0.457440 -0.867460 -0.180974
0.485284 -0.654998 -0.348136
-0.262255 -0.131775 -0.295342
0.037739 0.104295 -0.267328
-0.163499 -0.477260 -0.084723
0.194897 -0.415632 -0.661728
0.491821 -0.671480 -0.117004
-0.107780 0.083117 0.021338
0.544825 -0.755673 -0.161189
-0.103086 0.104959 0.080549
0.531907 -0.685722 -0.213895
0.411541 -0.506462 -0.486452
0.472004 -0.599503 -0.382223
-0.195432 -0.135272 -0.470715
0.558142 -0.894378 -0.171865
0.230018 0.103150 -0.743080
0.480258 -0.617962 -0.365593
-0.258261 -0.166554 -0.417774
0.296456 0.184759 -0.391964
0.146309 -0.260969 -0.798497
-0.397057 -0.258966 -0.376302
-0.445191 -0.247755 -0.221828
0.595929 -0.954367 -0.108033
0.496492 -0.898301 -0.146357
0.558614 -0.802929 -0.155706
0.291487 -0.198448 -0.098147
0.485429 -0.701415 -0.329840
-0.167640 -0.189386 -0.714190
0.085646 -0.057308 -0.908281
-0.208761 -0.478766 -0.352450
0.076996 -0.136665 0.056858
0.299609 -0.749309 -0.292013
0.157851 -0.568644 0.007464
0.352968 -0.692092 -0.029182
0.337913 -0.551397 -0.510118
0.227080 -0.636306 -0.013336
0.031767 0.079638 -0.332519
0.543970 -0.800716 -0.226717
0.482156 -0.828728 -0.244389
0.112849 -0.222612 0.049340
0.140065 -0.685382 -0.137055
0.347650 -0.065804 -0.284071
0.055248 0.035611 -0.532741
0.241004 -0.734609 -0.098011
-0.052419 -0.045810 -0.532097
-0.148572 -0.509152 -0.362763
0.236271 -0.017900 -0.866265
-0.069309 0.130071 0.078951
0.254407 -0.404423 -0.650476
-0.065153 -0.543602 -0.392924
0.530466 -0.837655 -0.089360
0.038096 -0.147644 -0.922700
-0.244080 -0.104084 -0.250282
0.501541 -0.585922 -0.318109
0.565373 -0.860112 -0.117535
-0.321293 -0.131699 -0.150158
0.238123 -0.451522 0.012243
0.489118 -0.894915 -0.144433
0.363593 -0.180773 -0.637271
0.425936 -0.663221 -0.057678
0.542103 -0.892059 -0.178356
-0.159513 0.052187 0.048179
0.404285 -0.225856 -0.288958
0.410417 -0.846361 -0.175475
-0.001070 -0.069620 0.088354
0.331160 0.058419 -0.696603
0.587779 -0.921190 -0.130294
-0.168399 -0.352994 -0.692242
0.186613 0.193049 -0.345389
0.522421 -0.914556 -0.135223
0.275555 -0.575322 -0.505772
0.326793 -0.409385 -0.050706
-0.050901 -0.334671 0.079923
0.253388 -0.622652 -0.006290
0.516270 -0.884523 -0.084851
0.361884 -0.196941 -0.639103
0.405976 -0.489712 -0.098600
-0.288476 -0.081503 -0.068165
0.036728 0.156798 -0.094819
0.583707 -0.918803 -0.110453
0.109365 -0.627132 -0.055617
0.185559 0.023709 -0.891198
0.244111 -0.582339 -0.500065
-0.348350 -0.106522 -0.002195
-0.193903 -0.080437 -0.296889
0.205809 -0.610814 -0.461599
0.454258 -0.431420 -0.430220
0.173051 -0.610253 -0.010688
0.415247 -0.423652 -0.509223
-0.298250 -0.400229 -0.483049
-0.011604 -0.104751 -0.823172
0.457223 -0.756261 -0.061049
-0.108492 -0.070550 -0.474555
0.345825 -0.510277 -0.534317
-0.218558 -0.147529 0.135844
0.134457 0.049983 -0.680657
0.276775 -0.734992 -0.065770
0.359345 -0.037959 -0.629971
0.126558 -0.429184 -0.658682
-0.168868 -0.014942 -0.146251
-0.059562 0.072612 -0.131057
0.539712 -0.717381 -0.209547
-0.382928 -0.184146 -0.168689
-0.034079 0.146333 0.045123
-0.180523 0.013400 0.153271
-0.148507 -0.079891 -0.406570
0.337960 -0.722476 -0.350282
0.480117 -0.830824 -0.242342
0.411927 -0.392751 -0.161260
0.292899 -0.015565 -0.205123
0.323021 -0.665548 -0.413778
0.543429 -0.862652 -0.092517
0.385065 -0.158518 -0.300492
0.197552 -0.032978 -0.900407
0.010154 -0.520101 -0.004490
-0.293293 -0.016982 0.152609
0.209277 0.204485 -0.363995
0.403832 -0.684455 -0.385761
0.334868 -0.530740 -0.526132
-0.052598 0.030172 0.102708
-0.127349 -0.241995 0.107648
0.402035 -0.226011 -0.544437
0.386359 -0.186954 -0.583449
-0.396729 -0.289046 -0.474520
-0.199376 -0.134940 -0.459959
-0.233525 -0.128972 -0.356794
-0.039312 -0.478606 0.007832
0.587402 -0.918997 -0.130793
0.040675 -0.617689 -0.116552
-0.386522 -0.159584 -0.080321
0.574194 -0.863316 -0.140249
-0.271340 -0.155023 -0.348323
0.427705 -0.324616 -0.255640
0.468552 -0.882805 -0.149886
0.117406 0.107656 -0.452027
-0.028786 0.071185 -0.211233
0.389770 -0.098926 -0.426550
0.079996 -0.636355 -0.101841
0.391955 -0.439032 -0.534096
0.377897 -0.396819 -0.565691
-0.095192 -0.150045 -0.764646
0.548639 -0.797553 -0.219193
0.061870 0.125140 -0.259064
-0.016628 0.027320 -0.383135
0.477230 -0.608827 -0.131616
0.470223 -0.727600 -0.073245
-0.045779 -0.083574 -0.670693
0.048969 -0.059222 0.060499
0.567078 -0.907731 -0.098457
-0.168811 0.058962 0.092945
-0.098023 -0.507916 -0.449083
0.581140 -0.898247 -0.145598
0.371657 -0.668148 -0.031479
0.235352 0.113454 -0.722805
0.373562 -0.038659 -0.431153
0.582471 -0.944538 -0.102749
0.172396 -0.531401 -0.551551
0.498752 -0.550835 -0.256161
0.276379 -0.701673 -0.038027
0.511249 -0.708245 -0.297703
0.487626 -0.726392 -0.315799
0.552726 -0.912289 -0.093285
-0.149945 0.015828 -0.093059
-0.127517 0.008855 0.136166
-0.119953 -0.465113 -0.024418
-0.133825 0.043800 -0.042047
-0.202715 -0.249078 -0.821390
0.379604 -0.169007 -0.599614
-0.071703 0.034270 -0.225420
0.381416 -0.740755 -0.041877
0.472413 -0.493570 -0.214537
-0.198477 -0.206992 -0.695499
0.535831 -0.840362 -0.218505
0.047625 0.099511 -0.307091
0.093567 0.088390 -0.009598
0.056603 0.158780 -0.137192
0.191203 -0.497186 -0.587981
-0.245232 -0.465310 -0.251830
-0.042873 0.099233 -0.085817
-0.131893 -0.466534 -0.035318
0.233543 -0.689284 -0.045155
0.482541 -0.638490 -0.356791
-0.326631 -0.395963 -0.135280
0.402711 -0.804667 -0.258378
0.499123 -0.860536 -0.077631
-0.124202 0.034990 -0.094202
-0.419404 -0.131634 0.090917
0.498426 -0.836766 -0.074206
-0.101419 -0.517731 -0.088773
0.400291 -0.179493 -0.531543
0.219414 -0.605672 -0.471075
-0.038990 -0.221367 -0.873087
0.244177 -0.750628 -0.143889
0.405398 -0.382277 -0.156913
0.532611 -0.759915 -0.127146
-0.143155 -0.302079 0.085446
-0.118969 -0.415732 -0.616899
0.070298 0.196958 -0.047175
0.134583 0.102942 -0.509459
0.341570 -0.773473 -0.276461
-0.353515 -0.371984 -0.485057
0.424650 -0.329176 -0.241390
0.271808 0.111794 -0.257228
0.207884 0.179092 -0.442808
0.263861 0.184911 -0.561388
0.576645 -0.933126 -0.135865
-0.273936 -0.121481 -0.233325
-0.284787 -0.204447 0.109016
0.402581 -0.321238 -0.548304
0.100768 0.110861 -0.400801
-0.179729 -0.175625 0.127079
0.197416 -0.526637 0.019702
-0.249128 -0.322246 -0.700237
0.447404 -0.421253 -0.447673
0.457203 -0.376000 -0.372148
-0.213812 -0.280639 -0.780507
-0.028736 -0.576197 -0.344302
0.204406 0.056231 -0.832148
0.038076 0.159082 0.015520
0.534608 -0.855073 -0.209881
0.029068 -0.288804 0.080495
0.563067 -0.890191 -0.100023
-0.103371 0.058937 0.123940
0.588877 -0.946630 -0.104595
0.166698 -0.416714 -0.666445
0.339509 -0.718195 -0.035177
0.027737 -0.105772 0.078253
0.503327 -0.807751 -0.078135
0.003452 -0.582587 -0.088394
0.092059 -0.377617 0.058202
0.428145 -0.268570 -0.453107
0.439637 -0.360816 -0.458923
0.133792 -0.632792 -0.392651
-0.424691 -0.129652 0.110316
0.474434 -0.793297 -0.277751
-0.234217 -0.343154 0.033032
0.505908 -0.761341 -0.092349
0.236881 0.124674 -0.690225
0.216860 0.100597 -0.154638
0.442950 -0.638278 -0.077388
0.364683 -0.807766 -0.091872
0.251337 -0.203331 -0.053033
0.247466 -0.572601 -0.510177
0.367341 -0.816252 -0.104988
-0.302427 -0.035413 0.115346
-0.038015 -0.482265 0.005403
0.578385 -0.948727 -0.108232
0.274245 -0.766126 -0.128742
0.243406 0.140735 -0.654232
0.074324 -0.651775 -0.236620
0.469296 -0.442056 -0.375915
0.524337 -0.896787 -0.089092
0.487278 -0.731578 -0.085623
0.572729 -0.944845 -0.118308
-0.425250 -0.319754 -0.503946
0.272077 -0.337926 -0.684017
0.557753 -0.834794 -0.121157
-0.181506 -0.068460 -0.288535
-0.031541 -0.473262 -0.569364
0.358790 -0.094109 -0.646554
-0.149213 -0.203228 -0.804254
0.227527 -0.190108 -0.797939
0.594156 -0.944300 -0.114377
0.491271 -0.515599 -0.289268
-0.259884 -0.205254 -0.539115
0.327737 -0.508951 -0.544479
0.531964 -0.873977 -0.085338
0.270184 -0.735714 -0.295563
0.162954 -0.665628 -0.349512
-0.024793 -0.347321 -0.740355
0.253955 0.157983 -0.624274
-0.219632 0.000725 0.029115
-0.508251 -0.269580 -0.137692
0.425557 -0.825158 -0.237287
0.321861 -0.178405 -0.149359
-0.439444 -0.185565 -0.034535
0.117821 0.078056 -0.548904
0.596341 -0.957976 -0.107010
0.580415 -0.920684 -0.142160
-0.275550 -0.216182 0.104799
0.151869 -0.062042 -0.011477
0.116718 0.002129 -0.792080
0.563252 -0.832303 -0.136059
0.248402 -0.307528 -0.017643
0.539956 -0.926599 -0.118958
0.261182 -0.664592 -0.405876
0.440276 -0.405753 -0.464471
0.565192 -0.892239 -0.101203
0.430359 -0.600981 -0.425756
-0.075586 0.094939 -0.019413
0.248738 -0.725892 -0.075264
-0.204288 -0.141668 -0.469685
0.529357 -0.791089 -0.248105
0.269519 -0.756753 -0.240326
0.184651 0.014007 -0.920388
0.577784 -0.948605 -0.109212
0.434910 -0.438096 -0.474161
0.085265 0.075551 -0.477089
0.588480 -0.920792 -0.125548
0.443967 -0.336509 -0.310256
0.521361 -0.897617 -0.090165
-0.076649 -0.514280 -0.457252
0.192865 -0.716589 -0.241678
0.267020 -0.444306 -0.002111
0.039694 -0.632713 -0.203677
-0.256283 -0.023449 0.040806
0.321285 0.134677 -0.427653
0.573027 -0.927349 -0.099144
-0.386914 -0.218083 -0.268806
0.543227 -0.740197 -0.176584
-0.073369 -0.558848 -0.158713
-0.281328 -0.124411 -0.224669
-0.103491 0.003465 -0.247139
-0.416938 -0.120338 0.121447
-0.324509 -0.173876 -0.278848
0.563434 -0.935682 -0.102321
0.533756 -0.922772 -0.123613
0.341466 -0.588417 -0.480890
0.000636 0.126856 -0.103180
0.559899 -0.865016 -0.106748
0.220295 0.092251 -0.154908
0.449856 -0.871977 -0.118676
0.357446 -0.170953 -0.216979
0.111765 -0.226328 -0.837247
0.308136 -0.142791 -0.149534
-0.304704 -0.051765 0.067979
-0.271039 -0.185987 -0.449337
0.308696 -0.757494 -0.282978
0.562586 -0.936161 -0.128372
-0.220488 -0.021932 0.160067
-0.433494 -0.335654 -0.465425
-0.113106 0.075237 0.008894
0.256248 -0.677236 -0.028717
0.529862 -0.858628 -0.085318
0.329538 -0.776256 -0.261934
0.219864 0.216417 -0.351345
-0.206164 -0.240243 -0.784310
0.550580 -0.904221 -0.165990
0.592647 -0.953649 -0.114828
-0.060217 -0.460506 0.013453
0.523882 -0.862644 -0.207674
-0.398486 -0.215726 -0.232764
-0.079914 -0.545086 -0.362543
-0.373655 -0.180186 -0.178629
0.239279 -0.706558 -0.058615
0.484829 -0.513686 -0.350547
0.559038 -0.803495 -0.189002
0.398588 -0.571437 -0.060839
0.562146 -0.923964 -0.145647
-0.276080 -0.056168 -0.016553
0.487203 -0.592637 -0.358012
0.405851 -0.642510 -0.416169
0.165284 -0.267559 0.027707
0.239914 0.033691 -0.150246
0.545252 -0.877355 -0.189511
0.439498 -0.860646 -0.176868
0.464724 -0.582606 -0.127982
-0.019081 -0.487798 0.008996
-0.282363 -0.109957 -0.175317
0.187590 -0.190952 -0.002785
0.421004 -0.773400 -0.052173
-0.030828 0.061600 -0.237260
0.157842 0.024345 -0.047207
-0.119652 -0.510223 -0.097050
0.176151 -0.296460 -0.760707
0.050769 -0.435631 0.049631
0.322643 0.131648 -0.695018
0.195276 0.057735 -0.103263
0.584908 -0.906276 -0.127403
-0.347684 -0.206921 -0.328968
0.212799 -0.315058 0.008027
0.524270 -0.821865 -0.088836
0.337530 -0.673454 -0.023969
0.238991 0.092324 -0.800171
0.406291 -0.462148 -0.112252
0.120240 -0.630406 -0.386556
0.227993 -0.741101 -0.146073
-0.094408 0.049483 -0.120412
0.386667 -0.119398 -0.556452
-0.318663 -0.189683 -0.344392
0.282693 -0.062868 -0.793017
-0.180498 -0.045841 -0.217764
0.574607 -0.878238 -0.160703
0.477813 -0.491320 -0.237123
-0.384286 -0.179554 -0.150482
0.226796 -0.158452 -0.814900
-0.142216 0.053448 0.009798
0.484203 -0.741458 -0.080046
0.345873 -0.330283 -0.626386
0.431229 -0.548741 -0.101105
0.231939 -0.308681 -0.005639
-0.120550 0.075713 0.028711
0.593543 -0.952571 -0.106312
0.203291 -0.457449 0.024979
-0.154431 -0.516302 -0.298560
0.517674 -0.704462 -0.138380
-0.490370 -0.278851 -0.211613
0.499068 -0.684934 -0.321043
0.199182 0.232618 -0.248103
-0.155053 -0.075299 -0.375626
0.377886 -0.432985 -0.551238
0.434011 -0.471374 -0.147517
-0.447864 -0.274847 -0.036615
0.240079 0.100870 -0.775164
-0.175494 0.001328 -0.077293
0.459080 -0.817956 -0.255430
0.003216 -0.276637 -0.816229
0.060378 -0.516297 0.015600
0.250990 -0.611070 -0.003033
0.197755 -0.719677 -0.239368
0.337902 -0.789920 -0.239158
-0.510671 -0.303616 -0.228906
0.469087 -0.582628 -0.390758
-0.180459 -0.420765 -0.565757
-0.415340 -0.292691 -0.440630
0.018635 0.120864 -0.166768
0.567850 -0.857074 -0.176025
0.031437 -0.426684 0.051962
0.126840 -0.675204 -0.129298
0.219719 -0.510931 -0.572498
-0.413506 -0.127179 0.090867
0.457810 -0.799893 -0.061705
0.345946 -0.260549 -0.137690
0.568016 -0.835544 -0.157112
0.043965 0.058233 -0.431782
0.081629 0.147093 -0.236479
0.339084 -0.611011 -0.463186
-0.414128 -0.219324 0.054730
0.521478 -0.701912 -0.280862
0.167215 0.074050 -0.683138
-0.120613 -0.043650 -0.357685
0.369294 -0.790466 -0.068480
-0.102495 0.010818 -0.225772
-0.232580 -0.138909 -0.391295
-0.137446 0.027852 0.139394
0.030552 0.079586 -0.329704
-0.349280 -0.231487 -0.404603
-0.029102 -0.058461 0.100165
-0.243987 -0.206951 -0.583642
-0.015376 0.116253 -0.098207
-0.249985 -0.101617 0.149063
-0.421807 -0.187507 -0.084125
0.180304 0.185535 -0.149700
0.507382 -0.647957 -0.312867
0.522848 -0.663620 -0.268918
0.331616 -0.163481 -0.174067
0.216924 -0.204815 -0.021881
0.282272 -0.354809 -0.667518
0.340869 -0.599202 -0.021816
0.072845 -0.648601 -0.256661
0.207014 -0.073424 -0.873142
0.565210 -0.931010 -0.137762
-0.405064 -0.356643 -0.438044
0.593733 -0.954842 -0.113571
0.482576 -0.856678 -0.076881
0.257703 0.098153 -0.827231
0.203705 -0.700984 -0.079011
0.248983 -0.749227 -0.228550
0.414463 -0.200088 -0.457203
-0.259826 -0.012043 0.086441
-0.122305 -0.148102 -0.691792
0.567692 -0.834483 -0.164444
0.498172 -0.756056 -0.292060
0.012186 -0.520315 -0.003753
-0.295194 -0.205132 -0.452036
0.323472 -0.799477 -0.159312
-0.145074 -0.265058 0.099985
0.070987 -0.437481 -0.647838
0.169045 -0.501683 -0.583731
0.277031 0.046295 -0.219060
0.442885 -0.402624 -0.220317
0.586892 -0.942287 -0.125495
0.257144 -0.751186 -0.113843
-0.383990 -0.147636 -0.047847
0.339475 0.042357 -0.377745
0.581362 -0.949379 -0.116906
0.493983 -0.862091 -0.208762
0.320674 -0.700203 -0.374380
-0.122117 0.055818 -0.031872
0.208001 -0.026184 -0.079572
-0.406348 -0.157483 -0.024846
0.254731 -0.585417 0.002067
0.376364 -0.765068 -0.050433
-0.227196 -0.366099 0.015328
0.036645 -0.033610 -0.711239
-0.132544 -0.291595 -0.789183
-0.180649 0.015214 -0.019670
0.563279 -0.915740 -0.153650
0.591819 -0.942819 -0.121233
-0.193653 -0.160207 -0.555833
-0.014614 -0.238540 0.094811
0.443420 -0.766218 -0.055713
-0.116649 -0.538021 -0.294552
0.014912 -0.060969 0.079479
-0.127250 0.011941 -0.161362
0.011604 0.138833 -0.091316
-0.470409 -0.260018 -0.199630
-0.107245 -0.086127 0.128389
0.052556 -0.400458 -0.687757
0.421428 -0.355060 -0.507367
-0.155225 -0.456600 -0.041098
0.290612 0.227060 -0.422461
0.581135 -0.911855 -0.144599
-0.215220 -0.307389 -0.740886
-0.120287 -0.009075 -0.246518
0.588291 -0.919859 -0.124857
-0.146191 -0.324337 0.074425
-0.412623 -0.161587 -0.022731
0.560111 -0.928163 -0.140114
0.351697 -0.188234 -0.658663
0.583562 -0.952201 -0.109953
-0.135221 0.024334 -0.101659
0.491853 -0.767721 -0.289384
0.121256 0.016276 -0.757407
0.375681 -0.199063 -0.234462
-0.143393 0.038938 -0.034304
0.364254 -0.527401 -0.046543
0.266048 0.206263 -0.497608
-0.006510 -0.263768 -0.829466
0.025944 0.133000 -0.145410
-0.331779 -0.348914 -0.041209
0.539409 -0.770707 -0.239667
-0.263781 -0.433225 -0.428371
0.334608 0.137425 -0.570219
-0.184720 -0.058381 -0.248007
0.092254 0.125045 -0.333964
0.212764 -0.030768 -0.082929
0.110738 -0.637618 -0.069001
0.080903 -0.336115 0.064479
-0.126357 0.031549 -0.100055
0.361690 -0.016831 -0.607067
-0.078972 -0.046993 -0.470741
0.026979 -0.247396 0.083711
-0.067770 -0.065606 -0.558516
-0.105308 -0.030422 -0.352420
-0.366231 -0.192737 -0.237502
-0.377943 -0.374983 -0.418920
0.377123 -0.334162 -0.141440
0.097869 -0.024347 -0.831548
0.273366 -0.327423 -0.031414
0.380603 -0.660728 -0.411464
0.388631 -0.576172 -0.052000
-0.363679 -0.138563 -0.068327
0.383906 -0.765862 -0.049881
-0.193916 -0.081979 -0.301852
0.361319 -0.730069 -0.038465
-0.265294 -0.223486 -0.584879
-0.260023 -0.155238 -0.376804
-0.271330 -0.123873 -0.247470
0.427330 -0.564209 -0.446037
0.283112 0.228713 -0.396638
0.364657 -0.001340 -0.569129
0.268891 0.038584 -0.199145
0.553414 -0.823937 -0.120774
-0.030054 0.024883 0.091726
0.325677 -0.168807 -0.703935
-0.087250 0.111984 0.064420
0.415447 -0.852242 -0.125896
0.194186 -0.573035 0.008502
0.425573 -0.310774 -0.491055
-0.153454 -0.209639 -0.814606
-0.313649 -0.305484 -0.688876
0.157907 0.092613 -0.600173
0.175089 0.084453 -0.668778
0.582418 -0.895546 -0.132964
0.418317 -0.240218 -0.485211
0.511674 -0.632476 -0.189124
0.145161 0.121073 -0.476716
0.464000 -0.842478 -0.073047
-0.220421 -0.474875 -0.192017
0.532984 -0.745884 -0.254523
-0.476392 -0.195508 0.023970
0.207055 0.134664 -0.584649
0.321970 -0.585731 -0.014954
0.371886 -0.771222 -0.295109
0.220921 -0.459384 0.019164
0.562977 -0.815403 -0.161493
0.542452 -0.921181 -0.099824
0.057139 -0.296384 -0.792164
0.560909 -0.833925 -0.128325
0.240776 -0.593510 0.001843
0.090598 -0.014900 -0.783103
0.406260 -0.758885 -0.047784
0.338638 -0.052703 -0.694491
-0.332736 -0.262253 -0.544854
-0.257626 -0.205285 0.113062
0.309607 0.153140 -0.402303
0.053737 -0.629110 -0.126544
0.283380 -0.020960 -0.802441
0.517716 -0.740009 -0.279893
0.064957 -0.502011 0.024238
0.197247 -0.658984 -0.036178
-0.145733 -0.075688 -0.399768
0.419165 -0.372533 -0.189673
0.424740 -0.300083 -0.273801
-0.348848 -0.186842 -0.261083
-0.233505 -0.426690 -0.497286
0.596336 -0.959705 -0.107803
-0.451379 -0.175880 0.075005
0.431472 -0.361864 -0.483394
0.466256 -0.817030 -0.065538
0.412083 -0.780467 -0.053569
0.539244 -0.903984 -0.090570
0.559874 -0.832261 -0.127353
0.026995 -0.604711 -0.343244
0.519408 -0.766869 -0.268310
0.185554 -0.450120 -0.633296
-0.124824 -0.204085 0.116868
-0.114391 -0.239381 0.107930
0.358535 -0.611414 -0.028594
0.262900 -0.674723 -0.025907
-0.319863 -0.201675 -0.380280
0.166667 -0.338272 -0.732446
0.506372 -0.578456 -0.265004
-0.266502 -0.192665 -0.482101
-0.015059 -0.150816 0.098501
-0.159399 -0.332040 -0.727113
0.225757 -0.715868 -0.081174
0.075598 0.066065 -0.484077
0.501552 -0.743828 -0.295559
0.594792 -0.951309 -0.108107
-0.159899 -0.173275 -0.681018
-0.261027 -0.186840 -0.476680
0.190750 -0.693508 -0.313094
-0.249903 -0.236315 0.099449
-0.155714 0.075578 0.114602
0.205109 0.210505 -0.334268
0.287943 -0.767797 -0.107118
0.403906 -0.559777 -0.467815
0.348411 -0.814122 -0.154500
-0.323669 -0.409663 -0.390022
0.183858 -0.082671 -0.888013
0.206081 -0.709221 -0.290654
0.445913 -0.798428 -0.275922
0.215082 0.211759 -0.354691
0.356953 -0.013718 -0.627685
-0.096443 -0.127597 -0.688879
0.033047 0.027658 -0.503993
0.568523 -0.941826 -0.106397
0.266603 -0.766035 -0.174394
0.143789 0.151091 -0.376134
0.037705 -0.631243 -0.230303
-0.414452 -0.358339 -0.203707
-0.009347 -0.011941 -0.528156
0.493288 -0.821877 -0.072346
0.377628 -0.059185 -0.415885
0.098726 -0.650525 -0.107941
-0.313499 -0.408668 -0.422447
0.212420 0.213163 -0.343607
0.596128 -0.959277 -0.107231
0.200726 -0.561359 -0.520445
-0.044221 -0.092699 -0.704071
0.500358 -0.843785 -0.228393
-0.095086 0.036967 -0.159280
0.473536 -0.739101 -0.317784
0.228334 -0.516055 -0.566748
0.230101 -0.232169 -0.024475
0.402857 -0.149807 -0.471671
-0.018724 -0.346405 0.076313
0.303226 -0.527452 -0.010650
0.144153 -0.600984 -0.013245
0.371846 -0.096540 -0.606687
0.332185 -0.697039 -0.028611
0.527078 -0.915870 -0.105879
0.526957 -0.804141 -0.096830
0.090834 -0.651746 -0.290468
-0.257146 -0.360441 -0.625258
-0.053658 -0.319556 0.084489
0.582665 -0.951559 -0.112043
0.544977 -0.818486 -0.111027
-0.356792 -0.110190 0.006649
0.459242 -0.466508 -0.421206
0.489730 -0.896956 -0.132509
-0.141193 -0.339185 -0.723543
0.169639 0.101375 -0.600597
0.122622 0.143960 -0.347263
0.431840 -0.334094 -0.477043
0.358249 0.024092 -0.452881
0.383692 -0.701642 -0.036234
0.592814 -0.956212 -0.112096
0.366347 -0.761712 -0.306470
-0.093814 -0.026560 -0.368129
-0.247394 -0.169235 -0.453136
-0.422468 -0.188567 -0.085933
0.209210 -0.145159 -0.034389
0.494044 -0.532605 -0.259729
0.015428 -0.583250 -0.389452
0.263757 0.133732 -0.726874
-0.245678 -0.076078 -0.155664
0.246310 -0.688933 -0.364693
0.345550 0.060837 -0.629140
0.209252 0.059184 -0.834483
0.307000 0.079490 -0.312757
0.302828 -0.347032 -0.050137
-0.361778 -0.310464 -0.629684
0.558181 -0.841515 -0.117400
0.491778 -0.897620 -0.137329
0.523842 -0.761612 -0.265223
0.134177 -0.602667 -0.446048
0.258137 0.121650 -0.752203
0.494834 -0.783802 -0.077335
0.529875 -0.919375 -0.110602
-0.225784 -0.123333 -0.357537
-0.210681 -0.089013 -0.283473
0.420222 -0.293535 -0.503751
0.377879 -0.644480 -0.425369
-0.046994 -0.575909 -0.163049
0.294528 0.152000 -0.349340
-0.048684 -0.075870 -0.638610
-0.201386 0.023281 0.057364
0.082990 -0.062754 -0.919397
0.523950 -0.651701 -0.237788
0.237688 -0.507477 0.013256
-0.283291 -0.119000 -0.202327
0.262838 -0.191863 -0.767679
0.113651 0.011547 -0.754051
0.491734 -0.757806 -0.295485
0.505345 -0.885164 -0.086965
0.404799 -0.280808 -0.544688
-0.435623 -0.144018 0.105509
0.461279 -0.856577 -0.205044
-0.343983 -0.090012 0.040551
0.433222 -0.412517 -0.188117
0.456959 -0.405705 -0.265578
-0.149218 0.047141 0.006564
-0.177850 -0.125111 -0.480974
0.498960 -0.804955 -0.076145
0.039220 -0.384099 -0.704868
-0.099206 -0.194402 -0.898438
0.453953 -0.486381 -0.174106
0.422161 -0.857373 -0.144205
0.228342 0.163469 -0.543628
0.433580 -0.847943 -0.201678
0.062325 -0.382296 -0.707638
-0.068899 -0.150490 -0.830635
0.060063 -0.606985 -0.380967
0.596551 -0.954311 -0.110485
0.199452 -0.061610 -0.055702
-0.236514 -0.015993 0.016420
0.150768 -0.275738 -0.785850
0.555710 -0.805207 -0.141489
0.383187 -0.831279 -0.178595
0.395534 -0.421488 -0.536298
0.295880 -0.158273 -0.123636
0.555253 -0.899043 -0.169535
-0.013918 -0.020326 -0.544088
-0.366847 -0.171469 0.108575
0.426960 -0.774453 -0.053056
0.537323 -0.736414 -0.243771
0.562957 -0.814395 -0.170990
0.546022 -0.743724 -0.199785
-0.374974 -0.231454 -0.341418
0.361746 -0.648695 -0.426048
-0.356230 -0.298930 0.006641
0.459930 -0.879488 -0.138134
0.031001 -0.070045 -0.815374
0.136260 -0.137424 -0.887955
0.497846 -0.765353 -0.084019
-0.187746 -0.419766 -0.018330
0.043842 -0.591419 -0.060970
-0.372891 -0.151753 -0.088425
0.362003 -0.344141 -0.603122
-0.481895 -0.224153 -0.055284
0.174843 -0.154819 -0.854373
-0.055818 -0.484585 -0.005351
0.559512 -0.830141 -0.128283
-0.392965 -0.273951 -0.434877
-0.059831 -0.381775 -0.690954
0.068933 -0.282071 -0.803209
0.118029 -0.642399 -0.358014
0.179719 -0.712882 -0.154038
-0.174929 -0.361083 0.043909
-0.048261 -0.569728 -0.139618
0.596859 -0.955740 -0.109154
0.062198 -0.374301 -0.715943
-0.204053 -0.049508 -0.171809
0.347366 -0.283346 -0.641540
0.576856 -0.881136 -0.126360
0.110192 0.056579 -0.599724
-0.173324 -0.000973 -0.090071
-0.087993 -0.460936 -0.000114
0.407249 -0.297947 -0.224455
0.497531 -0.737739 -0.301973
-0.198781 -0.451444 -0.076871
0.407249 -0.166823 -0.419790
-0.204161 -0.088559 -0.298007
-0.063148 -0.058208 -0.545906
0.148129 -0.036059 -0.016561
0.294224 0.237923 -0.464253
0.569261 -0.889933 -0.106270
0.543853 -0.738201 -0.185153
0.382248 -0.101922 -0.565911
-0.428122 -0.168833 -0.008146
-0.378788 -0.267755 -0.449614
-0.078363 0.062665 0.111803
0.299017 -0.712128 -0.038254
0.406390 -0.166016 -0.470632
-0.244147 -0.424109 -0.490418
0.350702 0.033134 -0.417931
0.179565 0.217037 -0.250402
0.458878 -0.464398 -0.421964
0.045622 0.076393 -0.377041
-0.454013 -0.292307 -0.074937
-0.223351 -0.365751 -0.639874
0.400819 -0.287008 -0.553965
-0.377432 -0.288094 0.004542
0.507483 -0.665658 -0.146995
-0.315565 -0.057865 0.074887
-0.212658 -0.379053 -0.622636
-0.290868 -0.037181 0.081241
0.565539 -0.925625 -0.097253
0.014795 0.012326 -0.508835
0.415121 -0.792878 -0.057741
-0.180495 -0.197874 -0.710117
0.469374 -0.647218 -0.369029
-0.315653 -0.185960 -0.339724
0.029254 -0.367103 -0.722839
-0.220195 -0.196798 -0.609171
-0.373960 -0.227032 -0.329587
0.331502 -0.043651 -0.710886
0.593817 -0.945684 -0.117257
0.527906 -0.844224 -0.220471
-0.095543 -0.104608 -0.616638
0.232814 0.150013 -0.210454
0.080765 -0.646187 -0.127620
-0.245876 -0.128272 -0.324206
0.458757 -0.383403 -0.372404
-0.145017 -0.298463 0.086789
-0.273656 -0.244323 -0.631831
0.205831 -0.176683 -0.821082
0.185760 0.128470 -0.552432
0.514964 -0.768405 -0.098695
0.078779 -0.072555 -0.940800
0.210844 -0.195543 -0.806986
-0.113073 0.109601 0.120100
0.350558 -0.742815 -0.327191
-0.301872 -0.370661 -0.560819
-0.026696 0.017397 -0.390554
0.417446 -0.809078 -0.064870
0.080681 0.196316 -0.074746
0.172527 0.157702 -0.425277
0.528976 -0.796352 -0.246290
0.525868 -0.776230 -0.257671
0.187139 -0.616068 -0.010624
0.253502 -0.625048 -0.007004
0.519567 -0.773390 -0.101586
-0.314906 -0.418190 -0.198003
-0.023842 0.157656 0.056659
-0.019769 -0.016364 -0.516890
0.440927 -0.845313 -0.212288
-0.163486 -0.385610 -0.642314
0.185241 0.139369 -0.515861
0.460580 -0.839152 -0.072028
0.364655 -0.778282 -0.281529
0.176966 -0.537296 0.019051
0.549009 -0.931055 -0.110029
0.345969 -0.725441 -0.037411
0.039385 -0.098778 -0.929009
0.138555 -0.640602 -0.050872
0.177873 -0.404557 -0.674993
0.348561 -0.788835 -0.252025
-0.170341 -0.499259 -0.354332
-0.301739 -0.141748 -0.230703
0.325911 -0.706444 -0.367726
-0.238894 -0.448028 -0.128000
0.165105 -0.666622 -0.063412
0.267192 0.029598 -0.838673
0.068584 0.165870 -0.143648
0.300703 -0.740118 -0.309606
0.130180 -0.524530 -0.553634
0.588975 -0.936233 -0.126957
0.455173 -0.504237 -0.163099
-0.004971 -0.066720 -0.716296
0.190928 0.070041 -0.754335
0.482091 -0.843986 -0.072659
-0.010799 0.067041 -0.268811
0.283450 -0.476546 -0.586429
-0.094802 -0.156544 -0.786649
0.128177 -0.440703 0.043500
0.571998 -0.873004 -0.121085
-0.250419 -0.254269 0.089720
0.116022 0.043288 -0.014491
-0.298072 -0.416229 -0.424888
0.340438 -0.072388 -0.259716
0.215993 0.153178 -0.546638
0.455605 -0.870694 -0.170186
0.224233 -0.646841 -0.418475
-0.324395 -0.386672 -0.105763
-0.150902 0.038064 0.144052
-0.066039 -0.011673 -0.388109
0.492538 -0.798525 -0.268056
0.094467 -0.171189 0.052314
0.359499 -0.354337 -0.602223
0.551089 -0.778445 -0.210165
-0.112175 -0.375830 0.053871
-0.007917 0.014181 -0.447071
0.402893 -0.174972 -0.514551
0.204660 -0.365315 0.019999
-0.175262 -0.061431 -0.281104
0.093668 -0.596923 -0.431589
-0.128556 -0.134351 -0.631915
-0.400153 -0.202988 0.075314
0.255345 -0.070743 -0.825141
0.517787 -0.801230 -0.253086
-0.178531 -0.503603 -0.222300
-0.439707 -0.210375 -0.114238
0.413471 -0.790536 -0.281210
-0.224868 0.035925 0.155960
-0.377480 -0.178952 -0.165244
-0.239053 -0.079978 -0.184558
-0.215962 0.042797 0.156349
0.128547 -0.663197 -0.094590
0.184919 0.136242 -0.525196
-0.102091 -0.116757 -0.639907
0.251302 -0.701607 -0.346388
0.309340 -0.719828 -0.040151
0.080430 -0.221494 0.064277
0.440954 -0.757303 -0.315821
-0.182828 0.001627 -0.058321
-0.092485 0.057438 -0.099371
0.222042 -0.552951 0.011945
-0.178200 -0.071994 -0.308098
0.103143 -0.096332 0.033960
-0.004019 0.103211 -0.168322
0.390119 -0.193371 -0.278469
-0.170471 0.019118 -0.032012
0.596777 -0.955231 -0.109960
0.528255 -0.837446 -0.087882
0.565042 -0.826164 -0.152450
0.513130 -0.810394 -0.083698
-0.492030 -0.214043 0.002340
-0.204326 -0.089446 -0.300478
0.488794 -0.772779 -0.075702
-0.194789 -0.369197 0.029154
-0.264764 -0.228609 -0.602773
-0.112044 0.084403 0.035971
0.525337 -0.660281 -0.217160
0.460674 -0.868697 -0.181397
0.283855 -0.462863 -0.008547
0.455332 -0.539929 -0.421524
0.178467 0.038767 -0.825021
0.372531 -0.035632 -0.429566
0.225900 -0.673353 -0.035623
-0.421165 -0.327373 -0.521356
0.224064 0.156170 -0.556762
-0.371479 -0.255949 -0.429327
-0.284425 -0.060888 -0.011349
-0.431761 -0.151387 0.057285
0.083073 -0.652290 -0.268456
-0.476420 -0.265503 -0.202634
0.348123 -0.103293 -0.251378
-0.204982 -0.214996 -0.705452
0.391520 -0.245659 -0.575049
-0.369538 -0.314929 -0.622095
0.027637 -0.588872 -0.389443
-0.094404 -0.438603 0.016445
0.528567 -0.738304 -0.263736
0.358580 0.018736 -0.589077
-0.257210 -0.163197 -0.409485
-0.024951 -0.259767 0.094399
-0.467508 -0.321946 -0.407303
0.172541 -0.705706 -0.138465
0.034664 -0.368069 -0.722038
0.001399 0.135923 -0.075688
-0.050387 -0.474487 0.006325
-0.160881 -0.276814 -0.801438
0.367657 -0.753809 -0.046629
-0.249498 -0.427997 -0.093522
0.152048 0.223273 -0.162653
-0.162067 -0.395125 0.022207
-0.199812 0.013097 0.020519
-0.090643 -0.116130 -0.665982
-0.097362 -0.315762 0.084456
-0.213646 -0.200078 -0.635870
-0.068004 0.025268 -0.263654
-0.382856 -0.313437 -0.587567
0.057900 -0.609249 -0.075460
-0.027117 0.001144 -0.442157
-0.286112 -0.127661 -0.223448
-0.014492 -0.576452 -0.368057
0.485504 -0.786361 -0.071539
-0.237085 -0.430616 -0.082659
0.360507 -0.153803 -0.237458
0.592322 -0.945696 -0.107723
0.510587 -0.758659 -0.098071
0.268011 0.170616 -0.617868
-0.192495 -0.130292 0.138507
0.256427 0.030695 -0.173492
0.420630 -0.244941 -0.335343
-0.212738 -0.095811 -0.300437
0.264798 0.090674 -0.854030
-0.161030 0.024544 -0.037618
0.204046 0.046710 -0.862097
0.466420 -0.660807 -0.091601
-0.036618 -0.508218 -0.505391
0.356572 0.043647 -0.552420
0.514811 -0.881845 -0.188496
0.378204 -0.058474 -0.422535
-0.307711 -0.222415 0.093771
-0.231009 -0.111671 -0.306944
0.585330 -0.947254 -0.121559
0.213536 -0.704835 -0.310300
-0.385994 -0.218818 -0.273446
0.404038 -0.842854 -0.115444
-0.185511 -0.127682 -0.470493
0.134794 -0.608959 -0.022611
-0.356134 -0.123368 0.136157
-0.015561 -0.040161 -0.604287
0.212003 0.239623 -0.256894
0.510318 -0.854766 -0.078369
-0.090331 -0.494565 -0.039287
0.041475 0.074505 -0.372972
-0.202605 -0.006759 -0.036923
-0.442805 -0.334764 -0.173713
-0.326751 -0.299199 -0.679195
0.389076 -0.523492 -0.498337
0.326275 -0.464320 -0.574340
-0.302252 -0.096112 -0.081653
0.313171 -0.157151 -0.148714
0.255642 0.090902 -0.845654
0.206464 0.133592 -0.586671
-0.439935 -0.228877 -0.173594
-0.158854 0.066236 0.146343
-0.485314 -0.217221 -0.024441
0.091714 -0.524577 0.017850
0.584172 -0.942811 -0.125942
0.199231 0.030693 -0.902147
0.556696 -0.913883 -0.156148
-0.338498 -0.145359 -0.152154
0.479547 -0.866787 -0.197934
0.043192 -0.389889 -0.698764
0.283770 -0.751956 -0.272376
0.478407 -0.821370 -0.068201
-0.395139 -0.267250 -0.407837
-0.109296 0.101697 0.085229
0.186012 0.037540 -0.847520
0.407070 -0.366960 -0.533964
-0.493547 -0.249819 -0.109795
0.518021 -0.760599 -0.272281
0.434537 -0.582881 -0.089887
0.436607 -0.613003 -0.414604
0.054179 0.187027 -0.039764
-0.504045 -0.248170 -0.049980
0.158877 0.097783 -0.585813
0.573595 -0.872522 -0.162826
-0.357178 -0.390170 -0.397139
-0.334495 -0.333610 -0.021037
0.562195 -0.855439 -0.186401
0.469861 -0.864622 -0.196391
0.580339 -0.896661 -0.147604
0.219655 0.012679 -0.111638
0.153449 -0.565431 -0.507130
0.210904 0.078110 -0.777245
-0.349952 -0.239133 -0.427717
-0.340022 -0.168459 -0.223219
0.474670 -0.575108 -0.149370
-0.223475 -0.439893 -0.473471
0.452694 -0.803984 -0.061521
0.325027 0.173893 -0.546618
0.369411 -0.117917 -0.294477
-0.184671 -0.007835 -0.084437
0.042474 -0.050929 -0.781635
-0.348012 -0.139206 -0.108872
0.418916 -0.285797 -0.270056
-0.020086 -0.347887 0.075933
-0.200679 -0.157980 -0.531373
0.483332 -0.657031 -0.113133
0.359651 -0.030156 -0.625039
0.270610 0.171412 -0.621673
-0.450209 -0.250282 -0.217691
0.503603 -0.727299 -0.103968
-0.322886 -0.260995 -0.564962
0.435762 -0.855992 -0.184994
0.206716 -0.157700 -0.830884
0.552397 -0.786835 -0.151073
-0.438500 -0.257943 -0.003620
0.411781 -0.812868 -0.068708
0.396297 -0.373195 -0.549568
0.338637 -0.583522 -0.485626
-0.041775 0.106504 -0.064965
-0.262982 -0.023872 0.055882
0.040817 0.026643 -0.526356
-0.361323 -0.205057 -0.289447
0.504925 -0.703444 -0.307756
0.286441 0.123399 -0.812751
-0.358494 -0.126109 -0.040725
-0.117323 -0.402816 0.034767
0.539091 -0.730460 -0.235636
-0.193900 -0.491055 -0.325278
0.496930 -0.864312 -0.078717
0.158786 -0.410992 0.039607
-0.283616 -0.079717 -0.074311
0.377086 -0.707999 -0.035395
-0.216203 -0.354882 0.031416
0.023840 -0.365217 0.069498
-0.048163 -0.430319 0.038276
-0.260240 -0.192647 0.118273
0.079526 -0.517984 0.018903
0.406951 -0.742415 -0.333810
0.307060 -0.658515 -0.017737
0.588203 -0.943107 -0.124290
0.446408 -0.797504 -0.059584
0.169598 0.090929 -0.634324
0.327391 -0.196969 -0.146827
-0.111264 -0.486092 -0.045080
0.286338 -0.304203 -0.692700
-0.220079 -0.328914 -0.705031
-0.130190 -0.349800 -0.712451
-0.111784 -0.064001 0.130540
0.571505 -0.858725 -0.133890
0.369040 -0.287430 -0.157111
0.097872 -0.666744 -0.214338
0.218507 -0.110153 -0.056007
0.495670 -0.885491 -0.090935
-0.448373 -0.237449 -0.180640
-0.272403 -0.165329 -0.379091
0.303294 0.144914 -0.764214
-0.283611 -0.071108 0.158330
0.453380 -0.573963 -0.414380
0.056504 -0.519137 0.012908
-0.050416 -0.077682 -0.640228
0.343960 0.049636 -0.647776
0.227609 0.179840 -0.488811
-0.015550 -0.359149 -0.727811
0.374486 -0.314517 -0.596109
0.077997 -0.116788 -0.930609
0.347781 -0.175890 -0.667433
0.140426 -0.674541 -0.299306
0.196011 0.051058 -0.828290
0.009910 0.158215 -0.024390
0.353970 -0.571277 -0.489156
0.434763 -0.283362 -0.416006
-0.340362 -0.147347 0.127341
0.327767 0.048973 -0.710759
0.009289 -0.006639 -0.556737
0.249541 -0.524052 -0.556541
-0.337396 -0.376578 -0.100884
0.423917 -0.734144 -0.339361
0.327500 -0.305313 -0.091318
0.103726 0.195229 -0.134841
-0.329449 -0.354346 -0.570299
-0.185474 0.049476 0.155699
-0.208587 -0.224433 -0.727164
0.327693 0.132470 -0.459433
-0.091098 -0.264019 0.100616
0.108066 -0.036546 0.016116
0.278532 -0.157391 -0.766688
0.110192 -0.492420 0.032636
-0.125513 -0.061130 -0.402264
-0.113102 -0.288129 0.093460
-0.121587 -0.316444 0.081911
0.470348 -0.581310 -0.137669
-0.283671 -0.241906 -0.599415
-0.003707 -0.067242 -0.721087
0.392304 -0.417351 -0.541604
0.311606 -0.759909 -0.280479
0.575903 -0.905168 -0.107068
-0.261505 -0.014319 0.168009
0.043517 0.109956 0.025605
0.164210 0.110116 -0.558964
0.175151 -0.347480 -0.722547
0.436826 -0.497080 -0.459283
-0.315817 -0.091188 -0.032407
0.206473 0.114977 -0.147750
0.340315 -0.223733 -0.150664
-0.327479 -0.144373 -0.176015
0.212683 -0.716313 -0.279485
0.285190 -0.589055 -0.003960
0.299526 -0.102377 -0.758702
0.103797 0.062611 -0.564492
0.253809 0.122657 -0.229618
-0.135709 -0.019173 -0.241355
0.316662 -0.544374 -0.015327
0.467192 -0.826922 -0.067655
0.384241 -0.346994 -0.144709
0.478610 -0.655540 -0.107794
0.157155 0.230206 -0.152740
0.257106 0.065105 -0.196338
0.135208 -0.117240 0.016781
-0.156359 -0.464033 -0.492538
0.549732 -0.774297 -0.213613
-0.249885 -0.067431 -0.117336
0.040219 -0.601046 -0.372872
-0.166607 -0.004492 -0.117957
0.548797 -0.881725 -0.184893
0.584664 -0.928258 -0.106735
0.075060 -0.003456 -0.707895
0.134991 -0.128055 -0.894614
0.229823 -0.264541 -0.015053
0.480684 -0.503383 -0.362824
0.581274 -0.949192 -0.117228
0.260786 0.231926 -0.401583
0.330774 -0.797643 -0.116108
-0.052153 -0.558943 -0.113617
0.178472 -0.202134 0.006614
0.117383 -0.386554 -0.700821
0.109655 0.174337 -0.057527
-0.394570 -0.175701 -0.112758
-0.144222 -0.509360 -0.371892
0.142918 0.194349 -0.233911
0.249694 -0.385404 -0.665877
0.392216 -0.752013 -0.323513
0.363418 -0.769012 -0.055135
0.538425 -0.779370 -0.124318
0.590236 -0.955352 -0.106700
-0.025486 -0.102246 -0.780980
0.280988 -0.769029 -0.215603
-0.403836 -0.347322 -0.481205
0.304089 0.164349 -0.395171
0.586421 -0.912272 -0.126070
-0.035941 -0.146775 -0.899517
0.433080 -0.859159 -0.171201
-0.198781 -0.129948 -0.445253
0.110944 -0.655704 -0.102122
-0.436792 -0.157624 0.049440
0.435965 -0.336323 -0.463272
0.486460 -0.894061 -0.141431
-0.033228 -0.174451 -0.916543
0.481534 -0.863813 -0.203172
0.055789 -0.640488 -0.244896
0.316838 0.159251 -0.443719
-0.214026 -0.431573 -0.508250
0.115936 -0.674818 -0.239979
0.405790 -0.759269 -0.316421
-0.090421 -0.401228 -0.653297
-0.312978 -0.402347 -0.449647
0.523929 -0.708837 -0.275367
0.300004 0.166634 -0.709309
-0.441844 -0.224610 0.033713
-0.147005 -0.358634 -0.693104
-0.222853 -0.233102 -0.720213
0.495316 -0.806061 -0.074146
-0.388899 -0.226868 -0.292382
0.226013 -0.307766 -0.729642
0.024842 -0.078801 -0.828613
0.170764 -0.672121 -0.342533
0.429027 -0.323814 -0.260967
-0.033793 -0.356532 -0.728285
0.492933 -0.559916 -0.208466
0.339979 0.082979 -0.443789
0.259925 0.194759 -0.298301
-0.036658 -0.510211 -0.020039
-0.347889 -0.165916 -0.195673
0.595795 -0.951261 -0.110926
-0.432679 -0.140005 0.096399
-0.279149 -0.189836 -0.441892
0.366761 -0.215810 -0.627759
-0.394011 -0.237123 0.048647
0.508526 -0.852541 -0.077769
-0.380321 -0.199706 -0.225480
0.586491 -0.938665 -0.104687
0.238438 -0.727228 -0.087057
0.418818 -0.346157 -0.513274
0.525303 -0.728432 -0.135704
0.491749 -0.898176 -0.123746
-0.003114 -0.012058 0.082432
0.568832 -0.889831 -0.166863
-0.140446 -0.111811 -0.529728
0.571767 -0.860241 -0.132999
0.595933 -0.952329 -0.112295
-0.292260 -0.184676 -0.392994
0.550739 -0.923805 -0.142739
0.305331 -0.596059 -0.482768
-0.194100 -0.277748 -0.791073
0.358220 -0.635771 -0.437818
0.475603 -0.881385 -0.166827
0.449550 -0.852439 -0.205121
-0.246548 -0.263020 -0.758929
0.324351 -0.764235 -0.067536
0.157913 -0.096587 -0.899377
0.124744 -0.592347 -0.013936
0.512663 -0.869009 -0.080580
0.341902 0.097301 -0.493841
0.452287 -0.665549 -0.076648
0.039602 -0.145005 0.076429
0.153869 -0.612790 -0.018104
-0.235123 -0.167361 -0.477192
-0.036644 -0.244514 0.098475
-0.097915 -0.058422 0.126335
0.323330 -0.658541 -0.019531
-0.149443 -0.514734 -0.171550
0.145003 -0.125342 -0.890516
0.004190 0.159992 -0.004595
0.281647 0.221338 -0.487085
-0.435657 -0.256940 -0.274975
0.426298 -0.722947 -0.050110
0.382202 -0.815452 -0.087384
0.384471 -0.514401 -0.066797
0.147176 -0.333267 0.043083
-0.169525 -0.042209 -0.232939
0.292814 0.163673 -0.701246
0.185432 0.203197 -0.167209
-0.335705 -0.105856 -0.031081
0.546152 -0.744239 -0.198987
0.359211 -0.255946 -0.633054
0.014844 -0.617537 -0.240089
0.560407 -0.846291 -0.191196
-0.042659 0.116936 0.083942
-0.104584 0.062435 -0.053485
-0.000164 -0.608056 -0.189241
0.156779 -0.693814 -0.129621
-0.011591 -0.138675 0.097079
-0.252730 -0.451655 -0.370670
0.259504 0.100769 -0.823181
0.587287 -0.952402 -0.115454
0.209012 -0.580566 -0.499365
0.001573 0.118480 -0.132605
-0.124845 -0.304110 -0.775100
-0.044818 -0.043494 -0.543256
-0.221839 -0.474036 -0.192181
-0.124117 -0.105516 -0.549433
-0.082734 -0.075105 -0.552543
-0.191666 -0.362542 0.036080
0.395142 -0.117433 -0.484655
0.472778 -0.577301 -0.144448
0.220699 0.174460 -0.489270
-0.470349 -0.326373 -0.216869
0.570311 -0.848601 -0.165238
-0.363785 -0.147283 -0.096305
-0.434635 -0.272364 -0.327436
-0.066783 -0.042561 -0.486311
0.272651 0.160225 -0.662911
0.096562 0.007819 0.012790
0.327830 0.062834 -0.706716
0.042001 -0.199068 0.078736
0.195892 -0.719730 -0.233912
-0.351448 -0.188230 0.102598
0.408674 -0.171738 -0.447620
0.290584 -0.685429 -0.386396
0.429209 -0.837928 -0.217899
0.314574 -0.456829 -0.585677
-0.443721 -0.158222 0.064512
-0.359983 -0.384714 -0.169043
0.548850 -0.856524 -0.200268
0.030739 -0.167773 -0.908783
0.488715 -0.817295 -0.070801
0.166243 -0.603332 -0.459314
0.594359 -0.951968 -0.107218
-0.242308 -0.421841 -0.071790
-0.408876 -0.158457 -0.021795
0.116551 -0.568665 -0.490368
0.419625 -0.230918 -0.357162
0.099756 -0.652932 -0.112533
0.089083 0.114753 -0.359508
-0.455999 -0.190013 -0.008299
0.372906 -0.022140 -0.500443
-0.000514 -0.013562 -0.555089
-0.110736 0.089592 0.049563
0.362299 -0.210744 -0.636569
0.231215 -0.608309 -0.469896
0.311439 0.179829 -0.694649
0.538894 -0.920202 -0.101111
0.144503 0.228195 -0.128191
0.198625 -0.659804 -0.386820
-0.180642 -0.481292 -0.119584
-0.096270 -0.258510 0.102250
0.311257 -0.090713 -0.743767
-0.218990 -0.092036 -0.272863
0.310083 0.159332 -0.412433
-0.054149 -0.100129 -0.703757
0.085579 -0.040738 -0.854453
0.138431 0.097885 -0.535285
0.236540 0.207923 -0.419793
0.449670 -0.873531 -0.132468
0.481036 -0.560048 -0.174188
0.035020 0.001200 -0.594519
0.158840 -0.217811 -0.823462
0.366515 -0.762062 -0.306045
0.351419 -0.323120 -0.622950
0.174677 -0.669102 -0.059292
0.113317 -0.460121 0.041428
-0.016972 -0.234618 0.095694
-0.421286 -0.178213 -0.055305
0.111746 -0.374282 0.054154
0.356053 0.048105 -0.527638
0.235483 0.103286 -0.756057
0.144942 -0.679149 -0.107691
0.299289 -0.653624 -0.425614
0.112483 -0.611891 -0.416901
0.156701 0.207517 -0.225103
0.166931 -0.667868 -0.063605
-0.349775 -0.088021 0.151754
0.187462 -0.688336 -0.322043
-0.342491 -0.388131 -0.141699
-0.401382 -0.179065 -0.106928
0.400029 -0.832189 -0.203995
0.308042 -0.639806 -0.014330
-0.491697 -0.302268 -0.164572
0.271587 -0.201422 -0.755234
-0.248472 -0.007878 0.072054
0.439886 -0.610095 -0.084587
0.573887 -0.886426 -0.161446
0.399195 -0.838257 -0.110560
0.459582 -0.873578 -0.105042
-0.325618 -0.127608 -0.126290
0.389471 -0.118287 -0.539944
0.179685 -0.018791 -0.923165
0.552256 -0.856599 -0.197374
0.505323 -0.601173 -0.310128
0.253792 0.195781 -0.501466
0.198653 0.115843 -0.624976
0.270489 -0.053407 -0.145354
0.429367 -0.433390 -0.164838
0.468887 -0.431603 -0.366210
0.154789 -0.682883 -0.101977
0.381140 -0.481793 -0.525917
0.042086 -0.386622 -0.702281
-0.048472 -0.006410 -0.414191
0.297506 -0.418388 -0.025524
0.449786 -0.819791 -0.065412
0.553947 -0.779982 -0.169808
0.233322 -0.697116 -0.342867
0.477897 -0.459752 -0.314999
0.189091 -0.645037 -0.406006
-0.227829 -0.380449 -0.000106
-0.054343 -0.145992 -0.851806
0.102303 -0.053501 0.024698
0.018206 -0.255603 0.085655
-0.186390 -0.478925 -0.405939
0.515129 -0.810940 -0.084946
0.226418 -0.036745 -0.096114
0.584445 -0.911850 -0.138388
-0.255872 -0.170714 -0.437112
0.342471 -0.690689 -0.387597
-0.236871 -0.467570 -0.319907
-0.005406 -0.487368 -0.559923
-0.013114 -0.137863 -0.926697
-0.231061 -0.464943 -0.173021
0.593100 -0.953054 -0.105961
0.189737 -0.395241 -0.679962
-0.081002 0.040382 -0.182796
-0.092042 -0.122346 -0.682676
-0.286258 -0.328083 -0.665938
0.456137 -0.687048 -0.073369
0.571820 -0.864147 -0.128775
0.331348 -0.219168 -0.682178
-0.121118 -0.143377 -0.679404
0.578262 -0.922911 -0.142608
0.064827 -0.024913 -0.752262
-0.271253 -0.212212 -0.533740
-0.115093 0.086170 0.049179
-0.103088 -0.068539 -0.481310
0.222217 0.236200 -0.293056
0.388818 -0.301906 -0.181955
-0.089712 0.035784 -0.176305
0.053889 -0.533511 -0.516054
-0.443436 -0.273875 -0.310724
-0.423501 -0.204323 -0.134423
0.210244 -0.425595 0.022219
-0.111461 -0.159783 -0.756242
-0.265423 -0.144614 -0.329141
0.397162 -0.440923 -0.111214
0.137750 -0.566483 0.005320
0.591280 -0.932387 -0.118606
0.109379 -0.055006 0.019949
0.135514 0.216661 -0.143476
0.190477 -0.185662 -0.006385
-0.329843 -0.374238 -0.515579
0.476922 -0.838283 -0.234229
-0.406514 -0.146533 0.011025
-0.245046 -0.261476 -0.757615
-0.142655 -0.130526 -0.584912
-0.264653 -0.141417 -0.320676
0.212422 -0.705776 -0.078172
0.223546 -0.736067 -0.133831
0.481471 -0.685963 -0.097197
0.420583 -0.231030 -0.365307
-0.414066 -0.238343 0.036183
0.060256 0.087405 -0.377304
-0.229202 -0.004072 0.037074
0.142653 -0.012661 -0.903646
0.344970 0.055545 -0.424038
0.089122 -0.639430 -0.330210
0.135759 0.152088 -0.353193
0.478855 -0.598054 -0.141215
0.252908 -0.386998 -0.003147
0.071757 -0.177548 0.064502
-0.220695 0.020247 0.094942
0.108181 0.084463 -0.504487
0.384455 -0.282348 -0.586703
0.060796 -0.644942 -0.222517
0.555118 -0.886858 -0.178417
0.500150 -0.553188 -0.286702
0.294908 -0.672475 -0.021349
-0.276367 -0.015336 0.116386
0.570115 -0.873927 -0.116616
0.352502 -0.266943 -0.639816
-0.111191 0.078396 0.125835
0.248117 0.070625 -0.877145
0.364817 -0.517285 -0.049628
0.079454 -0.635128 -0.099807
0.381764 -0.060835 -0.504526
0.199481 -0.612377 -0.457821
0.181537 0.128280 -0.542680
0.467252 -0.854014 -0.211870
-0.285143 -0.331648 0.016533
-0.082698 -0.056411 -0.492090
0.207238 -0.440733 0.023756
0.411919 -0.720998 -0.353171
0.274106 -0.647806 -0.429556
0.330784 -0.086683 -0.226609
0.282862 -0.724144 -0.326441
0.491670 -0.549838 -0.340636
-0.008016 -0.457113 0.032784
0.049507 -0.530850 -0.518120
0.205862 -0.403454 0.022828
0.000846 0.005867 -0.495509
-0.127474 -0.277469 -0.807646
0.235041 0.078118 -0.836477
0.489659 -0.515983 -0.262406
-0.353961 -0.157155 -0.152393
-0.214306 -0.364433 -0.648240
-0.401313 -0.182514 0.090424
0.468170 -0.419543 -0.340760
0.308875 -0.570944 -0.504053
-0.348033 -0.392993 -0.409058
0.292870 -0.670335 -0.020702
-0.241940 -0.013027 0.039346
-0.201166 -0.077607 -0.269894
0.425974 -0.303853 -0.487485
0.372231 -0.699360 -0.378242
-0.255608 -0.031756 0.012246
0.256900 -0.755014 -0.221243
0.422700 -0.629738 -0.415278
0.096224 -0.314473 0.061043
-0.024006 -0.538663 -0.044784
-0.311087 -0.264007 0.064165
0.429013 -0.395681 -0.489675
-0.195456 0.016953 0.022314
0.285885 -0.777390 -0.164010
0.435261 -0.297113 -0.438072
-0.384981 -0.193030 0.088773
-0.183840 -0.056075 -0.242700
0.556367 -0.910034 -0.093664
-0.253984 -0.352117 -0.643771
0.250413 -0.331703 -0.700905
-0.292715 -0.140617 -0.249194
-0.088946 -0.174803 -0.860158
0.448684 -0.622950 -0.399491
0.028973 -0.626286 -0.228109
-0.068980 0.007029 -0.320322
-0.080028 -0.175908 -0.885629
0.545556 -0.908802 -0.161176
0.402957 -0.382677 -0.152578
0.549854 -0.876922 -0.187678
0.228412 -0.575338 -0.506999
0.088928 0.022365 -0.658321
-0.202723 -0.045715 -0.162791
-0.065942 -0.047760 -0.505213
0.332350 0.117648 -0.652631
-0.065826 -0.547678 -0.106509
0.298620 0.175958 -0.389227
0.078395 0.050758 -0.540515
-0.300769 -0.067771 0.006485
0.338074 -0.046712 -0.276699
0.556705 -0.918089 -0.151749
0.594198 -0.950948 -0.115614
0.472324 -0.588348 -0.384548
0.576431 -0.905890 -0.107368
0.300307 -0.659686 -0.017611
-0.051615 0.073015 -0.149264
0.154755 -0.400414 -0.683028
-0.152844 -0.253954 -0.831667
-0.138952 -0.513204 -0.138217
-0.030167 0.047380 -0.284935
0.383752 -0.208282 -0.246073
0.323855 -0.032483 -0.727886
0.367064 -0.535501 -0.506347
-0.130529 -0.486267 -0.063625
0.474286 -0.795613 -0.275829
0.097743 -0.134758 0.044790
0.410026 -0.833466 -0.089018
0.212683 -0.039685 -0.882953
-0.055336 -0.270121 -0.823703
0.343364 -0.639851 -0.022153
0.271675 0.021164 -0.829849
-0.031859 0.114557 -0.063232
0.222637 0.085156 -0.783232
0.165882 -0.706921 -0.186156
0.323075 0.185539 -0.583162
-0.022381 -0.518838 -0.020424
-0.223044 -0.324839 0.052541
0.477173 -0.593441 -0.375882
0.187491 -0.313359 -0.743846
0.208711 -0.594128 0.001926
0.591671 -0.937887 -0.122095
0.301728 -0.772930 -0.239344
-0.268125 -0.091286 0.152471
0.546557 -0.770974 -0.223170
0.434908 -0.417803 -0.476197
-0.309043 -0.230546 -0.500341
0.323760 0.181440 -0.563462
0.336471 0.107433 -0.469588
0.085597 0.092815 -0.421997
-0.482502 -0.289009 -0.263826
0.361533 -0.066029 -0.326289
-0.493854 -0.284660 -0.221872
0.558248 -0.890408 -0.096332
0.093225 -0.664140 -0.193789
-0.059479 0.070744 -0.137312
0.528117 -0.713843 -0.153910
0.013588 -0.612434 -0.159893
0.279051 0.070005 -0.825388
