ply
format ascii 1.0
element vertex 1670
property float x
property float y
property float z
end_header
0.630797 -0.006624 0.028372
-0.332974 -0.184956 -0.880924
-0.011129 -0.086155 -1.280651
0.105214 -0.001396 -1.294159
-0.497936 0.198234 -0.824530
-0.098631 0.442815 -1.128222
0.115823 0.070871 -0.358154
0.284012 -0.048212 -0.267714
-0.341436 0.309009 -0.758472
0.463835 0.151166 -0.434010
-0.263815 0.172971 -0.651293
-0.024077 -0.026522 -0.485374
-0.268193 0.266380 -1.035137
0.001717 0.450243 -0.748971
0.239013 -0.049725 -0.302167
0.329244 0.095838 -0.217931
0.308345 0.311614 -0.826362
0.588820 0.037028 -0.073084
-0.366987 -0.047215 -1.016394
-0.386645 -0.109465 -0.821664
0.031253 0.511944 -0.879687
0.543650 -0.019226 -0.048392
0.077475 0.535007 -1.010244
0.221924 0.398570 -0.761878
-0.269926 0.233889 -1.039353
-0.042618 -0.151844 -0.648206
0.480593 0.108762 -0.417858
0.329325 -0.003552 -0.730449
-0.112947 0.024648 -0.534726
0.546539 -0.030092 -0.075553
-0.022738 0.470596 -1.178503
0.087935 0.381738 -1.273610
-0.489360 0.160929 -0.892730
-0.111464 0.477230 -1.113134
0.363671 0.003204 -0.655514
-0.386866 0.004210 -0.993339
0.042783 0.485339 -0.823309
0.573357 0.049436 -0.076621
0.626983 -0.007721 0.023452
0.131101 0.010804 -0.350746
0.328938 -0.081617 -0.302346
0.183028 0.288320 -1.315423
0.343328 -0.008478 -0.193684
-0.415525 0.034469 -0.967491
0.039242 -0.083549 -0.483479
0.510211 0.067974 -0.100868
0.254570 0.349657 -0.630126
0.597304 -0.009406 0.001154
0.506087 0.118695 -0.295124
0.427330 0.187695 -0.530190
-0.082779 0.242069 -0.558882
-0.463625 0.078721 -0.925207
0.526154 -0.035786 -0.100832
0.538686 -0.011474 -0.044864
0.231164 0.094632 -1.100954
0.066680 0.265709 -1.277754
-0.178847 0.352583 -0.693629
0.227858 0.068474 -0.276231
0.040205 -0.041654 -0.445240
0.166434 -0.080176 -0.975142
-0.383759 0.434529 -0.869105
0.479584 0.118623 -0.186964
0.035921 0.437582 -1.226541
-0.103946 0.135191 -0.528436
0.054903 -0.172791 -0.875630
-0.020125 0.490395 -1.177062
0.059271 0.061520 -1.306768
-0.448561 0.096800 -0.933072
-0.263978 0.278134 -1.036210
-0.429383 0.162144 -0.768876
0.406800 0.218130 -0.418279
0.327750 0.097077 -0.219584
-0.304129 -0.044590 -1.061471
0.624668 -0.008285 0.017763
-0.511936 -0.058485 -0.878056
0.171675 0.169324 -1.315157
0.460816 0.054457 -0.466703
0.009134 0.015006 -0.443373
-0.272671 0.255220 -1.033773
-0.057914 0.075643 -1.219528
0.164204 0.324000 -0.534490
-0.278501 0.453648 -0.834489
0.285096 -0.103977 -0.405929
0.443345 0.085957 -0.146758
0.039788 -0.166672 -0.674315
0.086698 -0.066391 -0.430672
0.353537 0.094432 -0.202263
0.290504 0.058193 -0.229102
0.510345 0.071014 -0.104877
0.178521 -0.138345 -0.661270
0.197739 -0.119794 -0.743853
-0.035326 -0.057013 -0.513712
0.627866 -0.004073 0.018910
-0.461912 -0.124714 -0.960700
-0.259657 -0.114195 -1.105396
0.005780 0.033718 -0.442011
0.065864 0.529601 -0.965773
0.513604 -0.000335 -0.274844
-0.077722 0.171841 -1.188987
0.553259 0.071438 -0.173339
-0.117429 -0.224744 -1.108075
-0.115109 0.031548 -0.534863
-0.260216 0.420121 -1.015028
0.573495 0.000939 -0.014222
-0.074933 -0.123177 -0.614775
-0.058125 0.565407 -1.136915
-0.155570 -0.214945 -0.884060
0.106976 0.454803 -1.275097
0.239226 0.072378 -1.058023
0.621120 0.003820 0.007832
-0.157194 0.396175 -1.093666
0.302766 -0.093703 -0.548824
0.474059 -0.014260 -0.096043
0.361718 0.156080 -0.779867
-0.374469 0.086668 -0.988433
0.328197 0.263318 -0.450306
0.446271 -0.057044 -0.193383
-0.154737 0.188393 -0.579743
0.153604 -0.143906 -0.726072
0.565716 0.027544 -0.166707
-0.257711 -0.216394 -1.124012
0.156367 0.455292 -0.851000
-0.137573 0.132120 -1.152333
0.432954 -0.047608 -0.369890
-0.370046 -0.051022 -1.014819
0.500001 -0.042774 -0.192353
-0.341194 -0.152402 -1.052782
0.224027 0.130587 -0.303462
0.067037 0.067971 -1.311306
0.291132 -0.106031 -0.447273
0.445394 0.107364 -0.528817
-0.178413 0.314856 -1.091991
-0.502094 0.077701 -0.822922
0.210721 0.183757 -1.216664
0.472375 0.073610 -0.444771
-0.369722 0.380474 -0.942403
0.314672 0.036552 -0.825026
-0.168460 -0.188342 -1.183922
0.168096 0.216146 -0.399409
0.146604 -0.049199 -0.370386
-0.335708 -0.103529 -0.778367
0.190385 0.294348 -1.291654
0.322227 0.288342 -0.817064
0.625157 -0.005898 0.012911
0.465265 0.019554 -0.422972
0.267893 0.351710 -0.666271
0.316136 0.226831 -0.368359
-0.261899 0.372507 -0.753987
0.499825 0.102356 -0.159064
-0.045237 0.175337 -1.211923
0.339316 0.228371 -0.374264
-0.227361 -0.027312 -1.114155
0.245271 0.250762 -0.412461
-0.491722 0.308001 -0.866256
-0.445475 -0.122970 -0.878034
-0.390017 -0.219786 -0.981799
-0.277488 -0.178175 -0.834750
-0.248108 0.028087 -1.089803
0.342176 -0.046729 -0.224304
0.405673 0.110838 -0.644775
-0.263275 0.436429 -1.010067
-0.476263 0.307243 -0.877579
0.426726 -0.021118 -0.136808
-0.311967 -0.215186 -0.931328
-0.404895 -0.004389 -0.981731
-0.373819 0.145065 -0.979072
0.551117 -0.017182 -0.040611
0.282622 0.209071 -0.346631
0.041590 -0.159298 -0.640606
-0.332541 0.257540 -0.990026
-0.185785 -0.164202 -1.167311
0.339202 0.110138 -0.828098
0.532050 0.029163 -0.259627
0.368420 -0.072736 -0.452276
0.534688 0.005625 -0.230190
0.313828 -0.090210 -0.337617
-0.249342 0.333698 -1.037454
0.533205 0.083466 -0.246667
0.576249 -0.020047 -0.030853
-0.342789 -0.081163 -0.764727
-0.124601 0.253110 -0.591200
-0.417141 0.420309 -0.876183
-0.263209 0.407813 -1.014933
0.578900 -0.015568 -0.081862
-0.108083 0.492397 -0.825683
-0.060061 0.561454 -0.950745
-0.192478 0.228213 -0.621493
-0.374517 -0.062313 -1.013483
-0.433825 0.166448 -0.932017
0.006018 0.530166 -1.189298
-0.389947 0.421016 -0.920931
0.397949 -0.045780 -0.468570
0.097110 0.187504 -1.312958
-0.366558 0.098415 -0.992185
0.552766 -0.028589 -0.100075
0.265966 0.349659 -0.651907
0.581414 0.019013 -0.018517
-0.176995 -0.080651 -0.639616
0.540562 0.085346 -0.199808
-0.029371 -0.131958 -1.275153
0.291213 0.312676 -0.913580
0.256062 0.255327 -0.417839
0.140635 0.180466 -1.345662
0.002473 -0.032054 -0.468067
0.194416 0.382577 -1.217226
-0.085810 0.010850 -1.210236
0.324479 0.049550 -0.815441
-0.469305 0.091869 -0.918881
0.051448 0.137678 -1.288280
0.231244 -0.058902 -0.317645
0.229454 0.331396 -1.140438
-0.094065 0.361673 -1.145190
0.043955 -0.148070 -0.600660
0.354071 0.260407 -0.473832
0.042910 0.366166 -1.243626
0.506553 -0.042859 -0.159983
-0.140181 -0.225617 -0.955560
-0.381809 0.021272 -0.994129
-0.061307 0.413821 -1.160132
0.290483 0.333816 -0.855646
-0.133024 -0.229863 -1.031528
-0.090753 -0.215063 -0.928904
-0.189341 0.599116 -1.036216
0.467957 -0.054005 -0.220839
-0.058150 0.393962 -1.165762
0.272000 0.340754 -0.628019
0.260021 -0.086389 -0.707537
-0.127176 -0.082153 -1.195939
0.473068 0.139516 -0.414212
0.232068 0.351251 -1.106687
-0.132647 -0.229605 -1.120719
0.378796 -0.070282 -0.251395
0.595447 -0.016678 -0.016774
-0.345775 0.063282 -1.013150
0.263304 0.097729 -1.020214
-0.131084 0.086451 -1.164721
0.069923 0.378305 -1.261145
0.399575 0.231605 -0.495717
0.190366 0.411743 -1.183637
0.310814 0.165311 -0.929458
0.247791 -0.041598 -0.861685
-0.142086 -0.198761 -0.819021
-0.210842 0.002416 -1.121112
0.608314 -0.009622 0.009041
-0.038491 0.054936 -1.237080
-0.070839 0.517654 -1.135747
0.077880 0.472854 -0.812008
0.209344 0.264650 -1.237062
0.450385 -0.043973 -0.149332
0.275285 0.264443 -1.027551
0.216645 0.104462 -0.295248
0.031809 -0.178612 -0.753913
0.284646 -0.070472 -0.693743
-0.106227 0.628836 -1.083295
0.536071 -0.031480 -0.080384
0.196131 0.335550 -0.556142
-0.236935 0.373936 -0.741804
0.322242 0.171744 -0.288030
0.043538 0.270856 -1.260129
-0.393234 -0.020967 -0.766821
0.102263 0.125793 -0.381085
-0.038287 0.286829 -0.565367
-0.041343 -0.119186 -0.586494
0.398229 -0.070217 -0.251407
0.287509 -0.078164 -0.661137
0.079534 0.365511 -0.608348
0.174791 0.175200 -1.310285
-0.271660 0.480876 -0.996512
0.165529 0.468227 -1.122241
0.463356 0.072279 -0.124475
0.389896 0.117368 -0.201805
-0.042132 0.411261 -0.698436
0.610685 0.004593 -0.032498
0.138367 -0.130094 -0.515132
-0.112260 -0.021456 -1.196521
0.420539 0.105170 -0.600923
0.287190 0.254835 -0.992494
0.366937 0.006574 -0.652540
-0.023545 -0.194278 -0.823772
0.592666 0.007634 -0.083411
0.440814 0.188030 -0.438024
0.621804 0.002440 0.002929
0.217373 0.066226 -0.283365
-0.230838 0.303058 -1.056012
0.167849 -0.072563 -0.991617
0.624369 -0.008408 0.017557
0.389171 -0.008293 -0.572822
0.366575 -0.020921 -0.182455
-0.018869 0.417158 -1.190303
0.011987 0.250500 -0.509348
0.475389 0.044876 -0.097569
0.173411 -0.136198 -0.716784
-0.414886 0.026423 -0.969308
-0.220054 0.103109 -0.609117
0.445902 0.025479 -0.479058
0.550918 0.013983 -0.198007
0.074680 -0.142802 -1.008923
-0.332313 0.055573 -1.024197
-0.040177 -0.161923 -0.672289
-0.247500 0.083356 -0.629575
0.021569 0.222590 -1.252346
0.093916 0.543113 -1.138142
-0.281840 0.407705 -1.001460
-0.059697 -0.088287 -0.560187
0.514769 -0.031995 -0.088888
-0.485205 0.090089 -0.907666
0.027561 0.401274 -1.226600
-0.134083 -0.035045 -1.183006
0.209208 0.402818 -1.109221
-0.474256 -0.051841 -0.939492
0.590513 -0.006805 -0.002459
0.280041 0.121643 -0.994220
0.193190 -0.009398 -1.060693
0.582199 -0.020647 -0.035836
0.391946 0.064481 -0.161232
0.136566 0.322223 -1.318848
0.462166 0.156909 -0.428653
-0.292711 0.293791 -0.719345
-0.020811 0.336792 -0.603600
0.629022 -0.007094 0.025197
0.242599 0.391809 -0.826183
0.340675 0.290240 -0.684267
0.388898 0.207930 -0.664340
-0.362547 0.064398 -0.718398
-0.095591 0.397016 -0.698735
-0.001080 0.482224 -1.192230
0.576722 -0.011449 -0.016004
0.542679 -0.032354 -0.104453
-0.228896 -0.116698 -0.713632
-0.182089 -0.090206 -0.652043
-0.410362 -0.065405 -0.804771
-0.252132 0.582520 -0.993539
0.260302 0.355064 -0.661959
0.545251 0.051861 -0.228664
0.467424 -0.021732 -0.106651
0.378474 -0.054919 -0.492599
0.576997 0.012208 -0.015481
0.549911 -0.002881 -0.032501
0.620656 0.004324 0.002752
0.271416 0.136442 -0.279006
-0.061980 0.562821 -1.134558
0.380060 0.041667 -0.664938
-0.075226 -0.055278 -1.229035
0.622652 -0.008483 0.020081
0.069265 -0.170428 -0.822003
0.453979 0.071761 -0.495178
-0.237435 -0.163758 -0.784721
0.059202 0.529306 -0.954783
0.166795 0.065550 -1.234781
0.424208 0.195765 -0.525074
0.465216 0.159832 -0.399728
0.140140 -0.114834 -0.470212
-0.417429 -0.074193 -0.984407
0.536931 -0.019632 -0.053617
-0.471712 -0.074096 -0.945081
0.603080 0.008379 0.001713
-0.181164 0.048459 -0.582396
0.552791 -0.019957 -0.043232
0.239404 0.374103 -0.695229
-0.266619 0.487683 -0.999016
0.564176 0.021155 -0.168305
-0.474575 -0.088082 -0.869688
0.148309 0.487443 -1.148119
0.129605 -0.106615 -0.993257
-0.316118 0.162287 -1.017957
0.433327 -0.062264 -0.219905
-0.162082 0.163479 -0.576813
0.529714 -0.027836 -0.174220
0.267432 -0.020230 -0.257975
0.209273 0.401075 -0.741520
-0.330570 0.367542 -0.788685
0.389660 0.009931 -0.152749
-0.380272 -0.148743 -1.023867
0.536222 0.054507 -0.256148
0.597967 0.005221 0.001597
0.418190 0.099741 -0.605971
-0.325907 -0.061025 -1.048468
0.282126 0.114597 -0.258133
-0.334659 -0.072464 -0.752042
0.333631 0.123533 -0.234862
-0.247533 0.280665 -1.047693
-0.003960 0.109765 -0.451322
0.294495 -0.070950 -0.666088
-0.282995 0.195640 -1.036328
0.289929 -0.105915 -0.491054
-0.047383 -0.197719 -1.086054
0.205478 0.388935 -0.692238
0.546065 -0.018846 -0.046219
-0.291362 -0.257750 -1.075577
-0.205725 -0.197858 -0.838811
0.538197 -0.032110 -0.083927
0.292250 0.249080 -0.406515
0.240773 0.317868 -1.111212
0.101012 0.538069 -1.227328
0.617665 -0.003959 -0.008411
-0.022463 0.616213 -1.131514
0.373993 0.122214 -0.213724
0.329378 0.303701 -0.681696
-0.359730 0.313469 -0.960920
0.117570 -0.023119 -1.225116
0.569055 0.028610 -0.033840
-0.112150 0.347963 -0.656007
0.033334 0.221238 -1.261094
-0.129631 0.555111 -1.086865
-0.143521 0.173052 -1.141134
0.358651 0.241308 -0.416390
-0.129563 0.370840 -1.117940
0.526769 0.014458 -0.260604
-0.281657 0.107893 -0.655174
0.317301 0.013033 -0.207490
0.597761 -0.007399 -0.053042
0.562462 0.025277 -0.175018
-0.414369 0.304758 -0.803026
-0.059053 -0.186309 -1.204986
0.410127 -0.045437 -0.437667
0.595338 -0.016640 -0.016335
0.008209 -0.179772 -0.738432
0.010028 0.575034 -1.184648
-0.263750 -0.198703 -1.116661
0.420087 0.202864 -0.525505
0.571782 -0.017421 -0.026923
0.405894 -0.055083 -0.197388
0.286505 -0.099631 -0.379745
-0.437848 0.383598 -0.892543
0.117765 0.486455 -0.896846
0.150844 0.160454 -0.366331
-0.504327 0.178078 -0.879003
0.241207 -0.047614 -0.864959
-0.303170 0.215301 -0.691237
0.465466 -0.050557 -0.163994
0.258831 0.248017 -1.086540
-0.535885 0.198814 -0.852659
-0.177881 -0.243633 -1.121139
-0.314958 0.015089 -0.692669
-0.122315 0.303243 -1.134571
0.515024 -0.039733 -0.121388
0.024297 0.328932 -0.576977
0.082772 -0.064130 -1.228531
-0.075444 0.203382 -0.533071
0.315735 0.317249 -0.725230
-0.081168 -0.055695 -0.547446
0.121698 0.496837 -1.278681
-0.358448 -0.127860 -1.036155
0.404096 0.226494 -0.473904
0.543147 0.082158 -0.149424
0.345051 0.051787 -0.188695
0.309064 0.099692 -0.901675
0.255087 0.217150 -1.099661
0.480098 0.127299 -0.403350
-0.447024 0.104863 -0.779087
0.258187 0.222295 -1.090718
0.145155 0.145667 -0.361531
0.154170 0.109845 -0.339762
-0.445112 -0.104532 -0.969468
0.452878 0.097757 -0.506015
-0.057884 0.379583 -0.664923
0.169291 0.468482 -1.032173
0.232602 -0.032088 -0.292142
0.031266 0.557288 -1.203015
0.603117 0.008731 0.001353
-0.197635 0.261394 -1.087072
0.413672 0.167621 -0.269637
-0.376348 -0.166847 -1.029757
-0.053887 0.017176 -0.491235
0.027120 0.362074 -1.232881
0.616456 0.004006 -0.015199
0.065508 0.017876 -1.318633
-0.013479 0.503553 -1.179660
0.230080 -0.122433 -0.503900
0.337669 0.250866 -0.813969
-0.151098 -0.212037 -0.871207
-0.223341 -0.148817 -1.137524
-0.061287 -0.205805 -0.880680
0.456327 0.172725 -0.393607
0.267125 0.003874 -0.248060
0.176915 0.172962 -0.359182
0.377317 -0.020194 -0.173778
0.499292 0.127615 -0.300571
0.135446 0.419155 -1.301716
-0.193458 0.338247 -0.689896
0.406621 0.216743 -0.409835
-0.143432 -0.215038 -0.885773
-0.089386 0.255041 -1.166532
0.163126 0.425103 -0.754070
0.427490 -0.005651 -0.127662
-0.487735 -0.066494 -0.864558
0.551638 0.072162 -0.124027
-0.264471 -0.149634 -0.780482
0.325982 0.059656 -0.204275
-0.193448 -0.210078 -0.870460
-0.434578 0.417283 -0.883771
0.583021 0.006437 -0.107851
0.507253 0.032767 -0.070795
0.410009 -0.041310 -0.449609
-0.299889 0.274026 -0.713567
0.282285 0.284455 -0.989027
0.215040 0.254639 -1.220239
0.311651 0.321491 -0.682295
-0.007597 0.441704 -1.194333
0.140175 -0.125755 -0.500222
-0.325166 0.119728 -0.688068
0.541767 0.050823 -0.239516
0.629930 -0.006229 0.028073
0.542288 -0.014004 -0.043983
-0.343487 0.114540 -1.006177
0.245836 0.320216 -1.090198
0.122341 0.240380 -1.322327
-0.403687 -0.193506 -0.939875
0.442743 -0.061766 -0.243546
-0.260594 0.014190 -0.651096
-0.074971 -0.137775 -1.243110
0.181120 -0.084170 -0.386390
-0.009977 0.104748 -1.249343
0.450067 -0.002634 -0.430166
-0.340807 -0.110312 -1.045976
0.440464 0.173994 -0.496881
0.403858 -0.065105 -0.227924
0.178291 -0.081106 -0.941774
-0.188417 -0.051953 -0.626504
0.215135 0.185526 -1.205245
0.551596 0.053272 -0.207833
-0.095602 0.018966 -0.522822
0.434387 -0.059123 -0.315082
-0.265324 -0.248618 -1.123925
0.564625 0.006755 -0.021540
0.424042 0.206538 -0.454283
0.346901 -0.031937 -0.632736
0.188985 0.004640 -1.094655
0.072184 0.102231 -0.395095
0.351471 0.021276 -0.712417
-0.209193 0.062568 -0.601992
0.563100 -0.018963 -0.113397
-0.369210 0.282846 -0.959211
-0.153712 0.102584 -1.145618
-0.519896 -0.039994 -0.873709
0.062438 -0.135110 -1.076454
-0.347501 -0.196976 -0.911599
-0.034994 -0.189691 -1.102008
0.601512 0.016641 -0.010424
-0.265341 0.559551 -0.987841
-0.035137 0.308711 -1.196782
0.041884 0.306245 -1.252972
-0.139785 -0.005936 -0.565033
0.000082 0.155517 -0.461892
0.413468 0.170388 -0.610289
0.440043 -0.058763 -0.200972
0.050301 0.269691 -0.505551
0.309771 -0.065163 -0.272896
0.054718 0.304744 -1.262519
0.388702 -0.047968 -0.486492
0.353135 0.003318 -0.182081
0.415083 0.212629 -0.514792
0.199593 -0.132998 -0.603494
-0.019555 -0.193750 -0.825347
0.542870 0.046697 -0.236205
0.299186 0.316887 -0.862695
-0.505438 0.244115 -0.841075
0.267299 0.349722 -0.942832
-0.355673 -0.092943 -1.032286
0.550460 -0.024606 -0.053787
0.349725 0.194498 -0.812059
0.128233 0.510434 -1.110326
-0.462456 0.305425 -0.834850
0.071017 0.443743 -0.744009
0.034698 -0.163704 -1.027229
0.199431 0.348446 -1.235185
-0.271274 0.576307 -0.976805
0.612963 0.006465 0.007005
0.178266 0.410366 -1.242422
0.564808 0.016194 -0.163473
0.303507 0.326100 -0.792854
0.581699 0.039826 -0.108760
0.197630 -0.080484 -0.893073
0.557908 0.068939 -0.141240
0.273354 -0.102490 -0.594645
0.074102 0.169936 -0.419698
0.409871 0.061167 -0.147969
0.497059 -0.028356 -0.092821
0.144523 0.474469 -0.907976
0.310772 0.106475 -0.902010
0.490160 0.090208 -0.393548
0.244034 -0.103786 -0.399137
0.183884 0.439188 -0.851096
0.120132 0.186500 -0.401490
0.363150 0.207847 -0.760521
0.214659 -0.128235 -0.548695
0.038811 0.010998 -1.300458
-0.087200 0.099422 -1.194317
0.503918 -0.006461 -0.289217
0.426639 -0.010142 -0.475919
0.086420 0.423587 -0.707208
0.592147 0.033480 -0.066790
0.071317 0.208040 -0.444743
-0.297626 -0.231558 -1.097660
0.183736 0.193616 -0.371627
0.082589 0.129924 -0.396049
-0.216867 0.192403 -1.084761
0.622251 -0.005729 0.022319
-0.179875 0.188601 -1.112190
0.603413 0.002678 0.006463
0.368181 -0.065881 -0.241746
-0.388954 0.100069 -0.975687
-0.315397 0.441309 -0.840058
0.418304 -0.033278 -0.448886
0.308052 0.320985 -0.784887
0.027658 0.396841 -0.662923
-0.305096 0.150655 -1.027897
-0.550186 0.059582 -0.865745
0.488124 0.111400 -0.174413
-0.244198 0.435806 -1.023987
0.615555 -0.000990 -0.016537
0.093955 0.064952 -0.373832
0.587558 0.004823 -0.004948
0.174209 0.287203 -1.342501
0.562638 0.044179 -0.175354
-0.117676 -0.128076 -0.650555
0.571574 0.050475 -0.134335
0.028240 -0.037025 -0.451345
0.541529 -0.003199 -0.200557
0.256790 0.363551 -0.691911
0.374161 0.205858 -0.337739
0.253185 0.296282 -0.490465
-0.191523 0.070297 -0.587980
-0.072146 0.414873 -0.711730
0.280529 0.219580 -1.023400
0.306294 0.284885 -0.895291
0.069469 -0.158703 -0.639378
0.467304 -0.051762 -0.247883
0.592326 -0.006898 -0.001103
0.487365 0.135030 -0.352953
0.515808 -0.034692 -0.095879
-0.239977 0.272922 -1.054469
0.140974 -0.100319 -0.439163
-0.127332 0.525096 -1.093584
0.281822 0.283672 -0.991434
0.559136 -0.025719 -0.055192
-0.329981 0.310349 -0.752018
0.306794 0.007185 -0.216710
0.274788 0.052960 -0.239498
-0.046679 0.082158 -1.226568
0.029702 0.519825 -1.208190
0.243985 0.058574 -1.030589
0.248340 -0.023042 -0.898040
0.234835 0.228104 -0.384872
-0.475885 -0.028327 -0.833948
-0.201587 0.346348 -1.069907
0.350355 0.261179 -0.469943
-0.080554 -0.102133 -0.590682
-0.189039 0.277307 -1.090618
0.428020 0.165592 -0.561347
0.116315 -0.070754 -0.413641
-0.136771 0.350170 -0.670087
0.196088 0.341655 -0.568220
0.166222 0.431251 -1.257437
-0.202233 0.068527 -1.116216
0.362136 -0.070810 -0.479851
0.361709 -0.029801 -0.192721
-0.205631 0.177730 -0.611484
0.420453 0.107111 -0.601642
-0.534457 0.032478 -0.856534
-0.127094 0.344560 -1.124153
0.628283 -0.003553 0.023435
-0.109940 0.199320 -1.161029
0.136693 0.319506 -1.319398
0.325685 0.301518 -0.594086
-0.153885 0.113862 -1.143595
0.291478 -0.068976 -0.290895
0.379095 0.154663 -0.727715
-0.350950 -0.239140 -1.011761
-0.286455 0.066817 -0.660221
0.451064 0.098528 -0.511425
-0.348793 -0.168527 -1.049995
0.107832 0.531677 -1.174971
0.136301 0.397810 -1.305930
0.266216 0.170197 -1.057028
0.308071 -0.023826 -0.746925
-0.023335 0.362286 -0.632474
0.272567 -0.052464 -0.280658
-0.121421 -0.225015 -0.985322
0.431447 0.031250 -0.122272
0.542643 -0.032354 -0.092980
-0.519341 0.017622 -0.849229
0.087575 0.361769 -1.276712
0.591725 0.011196 -0.006319
0.038104 0.149919 -0.433962
0.196661 0.439700 -0.942946
0.211851 0.332446 -0.553524
-0.384731 0.099751 -0.978799
0.296007 -0.098191 -0.543503
0.159936 -0.119109 -0.862338
-0.059950 0.232213 -1.191693
0.086208 0.529805 -1.247430
0.043210 -0.111420 -0.519253
0.500894 0.053274 -0.088907
0.448773 0.069903 -0.508476
0.481082 0.036141 -0.089452
0.066663 0.222262 -0.457613
0.629603 -0.005472 0.024082
-0.440622 0.231519 -0.916139
0.076808 0.133535 -1.307342
0.126644 0.499623 -1.270772
0.514916 0.076203 -0.111883
-0.436129 0.364330 -0.897031
-0.164721 -0.018856 -0.589812
0.072921 -0.010076 -1.328708
-0.194310 -0.138773 -1.156856
0.192701 -0.135064 -0.609270
0.071795 -0.156997 -0.943120
-0.120198 0.432735 -0.748985
-0.259141 0.576278 -0.974206
-0.209355 0.318983 -1.068889
0.284268 0.068769 -0.938811
0.103776 0.535780 -1.199788
-0.202703 0.451584 -1.051380
0.598805 0.020854 -0.065369
0.035487 -0.133749 -0.566865
0.459187 0.152837 -0.452185
0.507821 0.066164 -0.341261
0.386112 0.227868 -0.409234
0.428389 -0.012005 -0.468180
0.178529 -0.081222 -0.383577
0.586107 0.033177 -0.040919
0.402854 0.216815 -0.581629
0.372666 0.212269 -0.722336
-0.069252 0.267967 -1.178936
0.626782 -0.005929 0.025726
0.172287 0.309136 -1.345361
-0.278428 0.030143 -0.660436
-0.058372 0.503547 -1.147150
-0.229694 -0.037610 -1.114199
-0.448304 -0.141268 -0.973342
0.263495 0.333486 -1.000445
0.244528 0.137576 -1.099627
0.288337 0.344964 -0.797308
0.525452 -0.016036 -0.217016
0.493399 0.000788 -0.327137
-0.142071 0.328880 -0.654716
0.323300 0.122034 -0.239231
-0.526312 0.230930 -0.852155
-0.331748 -0.150779 -1.059349
-0.124218 0.536135 -1.093981
0.627663 -0.003878 0.018319
-0.041391 0.129167 -1.222482
0.382671 0.248405 -0.568147
0.173303 -0.066719 -0.992351
0.364724 0.211369 -0.752273
0.480790 0.048165 -0.409174
0.111811 -0.157768 -0.763119
-0.005969 0.511394 -1.183778
0.548471 0.059060 -0.215195
0.464385 -0.043169 -0.299250
0.542169 -0.023089 -0.055197
-0.237646 -0.247502 -1.037093
-0.031183 0.562111 -0.965091
0.251856 0.380422 -0.781770
0.087380 0.517751 -0.959935
0.405778 -0.039235 -0.466030
-0.081932 0.288412 -1.166312
-0.379311 0.018401 -0.996421
0.169255 0.382704 -1.314989
-0.243226 -0.016222 -1.100799
-0.181585 0.376142 -1.079375
-0.454813 0.123978 -0.923969
0.368171 0.224613 -0.378867
-0.031497 0.121686 -1.230906
-0.435518 0.237461 -0.790230
0.162881 -0.010142 -1.135150
-0.457151 0.277448 -0.896436
0.346162 -0.013431 -0.193808
0.006896 0.286960 -0.542438
-0.239055 -0.167227 -0.791683
0.419913 -0.056901 -0.195918
-0.222292 0.304057 -1.062033
-0.161065 0.196110 -1.124547
0.033677 0.403735 -1.230615
-0.022242 0.607145 -1.100072
-0.263686 -0.182991 -1.114061
-0.386645 0.263447 -0.949852
0.460515 -0.022525 -0.112507
0.611189 -0.009195 -0.015535
0.562455 0.052987 -0.169522
-0.090949 0.338240 -0.636824
0.077267 -0.141542 -1.006925
-0.261615 -0.162142 -1.112051
0.620843 -0.009038 0.017789
-0.399358 0.290593 -0.936075
-0.368776 0.255802 -0.964079
0.533444 0.089457 -0.155809
0.460655 0.089901 -0.143649
-0.397885 -0.212884 -1.021912
0.112684 0.521797 -1.255413
-0.128094 -0.099335 -0.621670
-0.148799 -0.104083 -1.183973
0.213038 0.142110 -1.186760
-0.167711 0.188051 -1.121091
0.254446 0.166858 -1.088413
0.386253 -0.075956 -0.282550
0.247054 0.109409 -0.277420
0.420260 0.197004 -0.543153
0.352439 0.193047 -0.803794
0.583985 0.025900 -0.112539
0.055984 0.491502 -0.844503
0.024650 -0.076650 -0.486531
-0.495225 -0.081287 -0.880343
-0.451661 0.060039 -0.937017
-0.444510 -0.070104 -0.964107
-0.077683 -0.210797 -0.905432
-0.083244 -0.136328 -1.236875
0.250312 0.143874 -0.296389
0.599313 0.000823 0.004545
-0.052339 -0.078682 -0.545127
0.334044 -0.079231 -0.525449
0.338972 0.292687 -0.680552
0.047212 0.362789 -1.247310
0.353838 0.023030 -0.708814
0.288781 0.071131 -0.233731
-0.371010 -0.154920 -1.031614
-0.306306 -0.118414 -1.072325
0.157235 0.464577 -0.897235
0.582785 0.038514 -0.052960
-0.408201 0.389676 -0.849081
-0.251210 0.099554 -1.075524
0.315848 0.142008 -0.259862
0.517857 0.008892 -0.055975
0.548133 -0.001037 -0.033511
0.161173 0.068924 -0.324670
0.512707 0.109645 -0.287210
0.165217 -0.121689 -0.835206
0.595651 0.015767 -0.009597
0.589589 -0.016234 -0.050634
0.177863 0.390566 -0.670862
0.445821 0.166630 -0.486878
0.317958 -0.072353 -0.281966
0.510577 -0.030908 -0.215773
-0.030238 0.035479 -0.469227
0.511876 0.001094 -0.060850
0.361974 0.253400 -0.461877
-0.187065 -0.112231 -0.678525
0.332224 -0.033809 -0.665684
-0.384333 0.169239 -0.737131
0.575694 0.041455 -0.054891
-0.199525 0.562009 -1.035089
0.205077 0.424324 -1.050485
0.196034 -0.094295 -0.854777
0.528664 0.076070 -0.112699
-0.345049 0.192832 -0.713928
0.096450 0.438861 -1.270159
0.359367 0.172816 -0.786436
0.199360 0.174575 -1.243289
-0.140731 -0.161079 -1.199412
-0.168927 0.460580 -1.074324
0.032461 0.561766 -1.026310
0.540305 -0.032900 -0.093572
-0.304426 0.004535 -1.052985
0.255748 0.332197 -0.576975
0.601015 0.008617 -0.061093
-0.286186 -0.009507 -0.679326
-0.334250 -0.138578 -0.814383
0.169318 -0.133362 -0.756227
-0.328415 0.479969 -0.955564
-0.027045 -0.067743 -1.266024
0.411176 0.214187 -0.538183
0.144119 0.261588 -1.334527
-0.333382 -0.054787 -1.042004
0.222527 -0.013877 -0.979487
0.611129 -0.000728 0.013173
0.567524 -0.013924 -0.115368
0.045136 -0.122389 -0.537748
0.485180 0.140106 -0.346874
0.130984 -0.152601 -0.724040
0.227031 0.108926 -0.290280
-0.119363 0.570870 -0.956375
0.515152 0.098790 -0.299449
0.381120 -0.018491 -0.169791
0.189872 0.397719 -0.701044
0.469263 0.130938 -0.441271
0.227205 -0.115644 -0.450023
0.129155 0.097851 -1.351259
0.486174 0.013430 -0.079754
0.382339 0.136810 -0.717343
0.557776 0.042832 -0.191227
0.513442 0.113308 -0.219220
0.311087 -0.060319 -0.264227
-0.071451 0.198075 -1.189112
0.202836 -0.117768 -0.458524
-0.341160 0.445143 -0.952198
0.211251 0.073910 -1.131185
0.162917 0.252791 -1.349621
0.348108 0.040296 -0.184190
0.460146 0.162520 -0.422671
-0.010873 -0.145220 -0.616816
-0.242511 0.302009 -1.047736
-0.179908 0.233564 -0.615761
-0.161269 0.574804 -1.060638
0.010097 -0.007496 -0.450126
-0.022733 -0.151287 -1.253730
-0.133933 0.049182 -0.546305
0.549438 0.073666 -0.125103
-0.177761 0.501952 -0.853608
-0.095621 -0.181981 -0.751130
0.405474 -0.066762 -0.366177
-0.342716 -0.096260 -1.042228
0.621917 -0.000519 0.001016
-0.079991 0.124192 -0.508924
0.172967 -0.086157 -0.941297
0.232977 0.147266 -1.136713
0.617052 -0.000045 -0.013035
-0.403398 -0.129720 -1.003917
0.609414 -0.008948 0.010579
-0.165216 -0.174180 -0.762206
0.210602 0.142622 -1.193601
-0.124495 0.089478 -1.168983
-0.029175 0.234745 -1.213552
0.318383 0.310708 -0.622548
0.401396 0.083425 -0.644462
0.598302 0.021213 -0.066895
0.042001 -0.021742 -0.432058
0.139819 0.252698 -1.332910
-0.102846 -0.133044 -0.648279
0.351261 0.273791 -0.529484
0.202221 0.367237 -0.628206
0.309531 0.321338 -0.655757
0.023895 0.247033 -1.249915
-0.247102 0.493137 -1.012231
-0.337512 0.163138 -1.002321
0.529801 0.070838 -0.102791
-0.250972 0.530981 -0.911376
0.520111 0.105808 -0.252912
0.517011 0.020368 -0.058900
0.518609 0.041654 -0.069951
-0.306308 -0.164860 -1.080143
0.488486 0.004669 -0.078184
-0.464698 -0.063104 -0.844777
0.210952 0.423288 -0.996459
0.036502 0.265045 -0.508256
0.392360 0.204947 -0.654330
0.447555 0.084941 -0.143835
0.346765 0.254290 -0.771238
0.617484 -0.008587 0.016771
0.043745 0.370335 -0.622188
0.242117 0.031528 -0.262668
0.610014 -0.011470 0.006710
0.561471 0.014582 -0.171039
0.465281 0.151617 -0.425982
-0.066790 0.361548 -0.648789
0.277824 0.229176 -1.030663
0.138641 -0.090176 -0.423528
0.627756 -0.002955 0.022003
-0.201004 -0.201355 -0.846381
-0.077963 0.254112 -0.563579
0.184043 0.447819 -0.910053
-0.118497 -0.018742 -1.191548
-0.404291 -0.228279 -1.008103
0.280705 -0.094167 -0.357162
-0.356914 0.377838 -0.952122
0.146235 0.063952 -0.335072
-0.508498 0.029818 -0.837298
-0.186558 0.026437 -0.590804
-0.447575 0.129706 -0.928246
0.448026 0.131629 -0.206320
-0.485595 -0.051180 -0.931169
0.574453 -0.019867 -0.030898
0.623269 0.001588 0.008726
0.240517 0.391615 -0.938431
0.091559 0.224185 -1.302762
0.610050 0.001613 0.011154
-0.390214 0.208737 -0.956479
0.396521 -0.074582 -0.286352
-0.143647 0.167009 -1.142060
-0.215616 0.314669 -0.685279
0.412106 -0.028003 -0.476818
0.480927 0.043063 -0.405216
-0.191782 -0.091512 -0.660450
0.081236 0.528559 -0.991135
0.009466 -0.023913 -0.458207
-0.057645 0.532397 -0.892367
0.367537 -0.001688 -0.638019
0.090970 0.311498 -1.287634
0.356648 0.246934 -0.740473
-0.430947 0.136034 -0.767520
-0.496018 0.006404 -0.913926
0.230968 0.300651 -1.157787
0.213784 0.260833 -1.223800
0.270727 0.359404 -0.874758
0.460834 0.059464 -0.115588
0.459739 0.093171 -0.485370
-0.362861 -0.117688 -0.812057
-0.183957 0.517333 -0.875911
-0.027686 0.314676 -0.584677
0.560213 0.037673 -0.184198
0.270621 0.059291 -0.963595
0.340932 0.291897 -0.629832
0.107153 0.324013 -1.297247
0.424148 -0.034819 -0.151848
-0.339037 0.095079 -0.698110
-0.287728 0.168560 -1.037460
0.179967 0.167502 -1.291735
0.051926 0.405780 -0.673721
0.295446 0.253291 -0.965438
-0.372346 0.000563 -0.741804
0.516595 0.022381 -0.294689
0.062473 0.347970 -0.587521
-0.280762 0.306784 -1.019232
0.602436 0.012425 -0.057408
0.563690 0.062688 -0.118413
-0.327568 -0.105988 -0.774634
0.407758 -0.068239 -0.243633
0.382244 -0.063079 -0.453800
0.300824 0.222989 -0.362801
0.455018 -0.015385 -0.395186
-0.243713 0.093702 -0.626561
-0.509865 0.210637 -0.869512
0.226001 -0.125318 -0.557608
-0.264377 -0.206213 -0.886699
0.579510 -0.021614 -0.042731
-0.459098 -0.184765 -0.972849
0.291375 0.332463 -0.855347
0.502750 0.070955 -0.106832
0.430426 0.197339 -0.474405
0.489035 0.139173 -0.282379
-0.081948 0.590031 -1.115516
-0.495578 0.095280 -0.899280
-0.399910 -0.174999 -0.908286
0.436668 0.159757 -0.261079
0.513760 0.043823 -0.317636
0.279562 -0.010153 -0.243556
0.012365 -0.145214 -0.605515
0.581233 0.014873 -0.014881
0.141651 0.437151 -1.303180
0.482903 0.141710 -0.265043
-0.374575 0.050224 -0.729847
0.304600 0.303103 -0.870062
0.472517 -0.027012 -0.108199
0.078090 -0.135541 -0.551495
-0.392729 0.393456 -0.842767
-0.471998 0.274025 -0.886261
0.367238 -0.080113 -0.411343
0.041469 0.526575 -1.215575
0.605306 0.014232 -0.006439
0.338186 0.213481 -0.345762
-0.119985 -0.214994 -0.893544
0.478089 0.121613 -0.417433
0.074126 0.202074 -0.439034
0.058337 0.559933 -1.075416
0.580192 -0.012594 -0.086312
0.156253 0.341163 -0.563082
-0.368481 0.402493 -0.939594
0.489056 0.108387 -0.168355
0.493815 0.066540 -0.104977
0.113574 0.113005 -0.368868
0.440960 -0.040753 -0.370379
-0.130891 0.346988 -1.120995
0.047169 0.258854 -1.264779
-0.038013 -0.099249 -1.263387
-0.257049 0.352141 -1.028767
0.370947 0.260620 -0.592905
0.628247 -0.006048 0.020898
0.296952 0.335987 -0.704630
-0.248835 -0.023232 -1.097917
-0.175917 0.191897 -0.595515
-0.053684 0.260437 -1.191478
-0.128596 0.359282 -0.674378
0.298965 -0.103926 -0.451024
-0.396768 0.054388 -0.977721
-0.265930 0.437641 -0.813122
-0.188538 -0.176983 -1.167470
0.593945 -0.015568 -0.011194
-0.162600 0.135902 -1.133572
-0.246479 -0.083257 -1.109730
-0.348588 0.290543 -0.753327
0.148134 -0.139910 -0.560058
-0.145431 0.543636 -1.077356
0.494362 -0.045776 -0.149508
0.415219 0.201325 -0.362080
-0.276887 -0.090752 -1.088971
0.328115 0.255156 -0.846258
0.238416 0.337185 -1.099809
-0.136036 0.505570 -1.090568
0.306647 0.058147 -0.217557
0.321503 -0.005951 -0.209473
-0.353272 0.385400 -0.953486
0.581157 -0.004540 -0.008912
-0.403467 -0.055735 -0.793319
-0.056571 0.114060 -1.214033
0.176105 -0.031285 -1.063039
0.494932 -0.037138 -0.110937
0.153063 -0.123294 -0.488452
-0.067639 0.472858 -1.145607
0.199925 0.028035 -0.294890
0.487710 0.126080 -0.373045
0.019022 0.097365 -0.432476
0.618523 0.001317 -0.009175
0.105681 0.021504 -0.367795
-0.372612 -0.161018 -1.031481
0.272294 -0.014348 -0.251118
-0.485933 0.292454 -0.873067
0.593421 0.022904 -0.082937
-0.232088 0.062063 -0.619429
0.177184 0.367554 -0.616643
0.394987 0.214906 -0.626667
0.035680 -0.173583 -0.714617
0.277779 0.043183 -0.926552
0.243521 0.387753 -0.937516
-0.403802 -0.066787 -0.993028
0.491327 0.136931 -0.278986
0.432966 -0.062246 -0.219449
0.370355 -0.068261 -0.247322
0.026237 -0.182458 -0.898236
0.252072 -0.046398 -0.289299
0.479819 0.084812 -0.425430
-0.252551 0.116022 -1.071780
-0.148980 0.189978 -0.576397
0.449846 0.080303 -0.138367
-0.080220 0.011553 -1.214166
0.303844 0.253175 -0.415770
0.325248 0.292831 -0.788652
-0.199367 0.548642 -1.037454
0.544415 0.078766 -0.135389
0.028915 0.392404 -0.656271
0.552534 -0.025560 -0.055622
0.002624 0.395360 -1.209537
-0.024050 0.474372 -1.176918
-0.424659 0.069832 -0.954922
-0.079335 0.130406 -1.194796
0.159525 -0.132182 -0.798147
0.081911 -0.090225 -1.166766
-0.160689 -0.198729 -1.191298
0.341120 -0.091210 -0.371501
0.190474 0.109160 -0.314781
0.284810 -0.081656 -0.656170
0.093456 0.278077 -1.295062
0.432961 -0.011664 -0.126125
-0.020541 0.508475 -0.852656
-0.154001 0.608909 -1.060160
0.324294 0.260682 -0.854701
-0.058104 0.248637 -0.548182
0.267918 -0.109956 -0.436990
0.429880 0.062763 -0.554771
0.271509 0.036051 -0.240500
0.473695 0.080182 -0.442733
-0.457924 0.322543 -0.888284
0.233216 0.265857 -1.163200
0.180579 0.386269 -0.661817
0.293306 0.176068 -0.303753
0.280333 -0.077658 -0.313832
-0.085620 0.460641 -0.775771
-0.503921 0.133870 -0.886741
-0.103936 -0.149613 -1.224127
0.289876 0.217735 -0.356693
-0.122319 0.523456 -1.097490
-0.533006 0.032514 -0.882744
-0.288907 0.463824 -0.849271
0.114502 0.386974 -1.291968
-0.294759 -0.183518 -1.091648
0.382945 0.233676 -0.642490
-0.213123 0.210860 -1.084365
0.050994 0.049098 -0.406015
-0.203140 -0.117577 -1.146893
-0.309778 -0.138685 -0.797223
0.117805 0.476205 -1.279336
-0.152082 0.231637 -1.125070
0.030701 -0.133207 -1.171564
0.528188 0.097231 -0.234758
0.157406 0.430129 -0.762879
0.193675 -0.133151 -0.651976
0.203330 0.427406 -1.046455
0.447628 0.097385 -0.156982
0.586092 0.039067 -0.063152
0.134443 0.024951 -0.345185
0.551269 0.069008 -0.110415
0.087416 0.491003 -1.254838
-0.273381 -0.185166 -1.107407
-0.454296 0.143459 -0.921063
0.304921 -0.099295 -0.499043
0.309325 -0.064027 -0.647959
-0.068057 -0.177412 -1.254790
0.610578 -0.011992 -0.007242
-0.273362 0.392488 -1.010161
0.023871 0.538878 -0.944363
0.510131 -0.026334 -0.081107
0.273288 0.345081 -0.649740
0.628032 -0.005549 0.026526
0.566519 0.057861 -0.097443
0.234292 0.074051 -0.272899
0.595383 0.020959 -0.077366
-0.281308 -0.177482 -0.835846
0.374563 -0.070248 -0.445542
0.086898 0.439339 -1.263161
0.309253 0.092393 -0.228680
0.593308 0.031190 -0.070442
-0.360522 0.441443 -0.938800
-0.255821 0.145558 -0.639933
-0.495783 0.166926 -0.887068
-0.492993 -0.114215 -0.936425
0.136418 0.447925 -1.297576
-0.121965 0.071958 -1.173765
0.036019 0.398130 -1.233255
-0.404775 0.357004 -0.825767
0.245116 0.390538 -0.861385
-0.463416 0.327965 -0.883393
0.406893 -0.009761 -0.145271
0.567667 0.048406 -0.067087
0.448038 0.169541 -0.469584
-0.425590 0.179851 -0.935724
0.173160 0.352856 -0.585583
0.215647 0.419981 -0.963659
0.448020 0.172783 -0.315218
-0.117002 0.129353 -1.167696
-0.233025 -0.083917 -0.684358
0.100827 0.208488 -0.428214
-0.499757 0.069099 -0.900662
-0.318025 0.356046 -0.773405
0.215496 0.058077 -0.283517
0.204561 0.055090 -1.126474
-0.186741 0.264050 -1.094514
0.628010 -0.003473 0.023618
0.563842 0.054087 -0.162538
0.532975 0.009664 -0.239447
-0.388531 -0.045647 -1.000528
0.543206 0.025364 -0.227306
0.106666 0.402340 -1.283706
-0.282447 0.328744 -0.734126
-0.274588 0.315602 -1.022218
0.362342 0.138671 -0.775557
0.144984 0.378709 -0.630722
-0.130858 0.175282 -1.149928
0.338234 0.271129 -0.485722
0.099417 0.139120 -1.322775
0.198614 0.419000 -1.119471
0.141851 0.304731 -0.509781
-0.337131 -0.028737 -0.727334
0.167516 0.306159 -1.343966
0.313949 0.107239 -0.234231
0.593993 0.029030 -0.037116
0.264471 -0.010189 -0.255200
-0.426918 0.180101 -0.934720
-0.312646 0.201937 -1.013796
0.565670 0.009263 -0.021541
-0.249822 0.201265 -1.059404
0.293900 0.336284 -0.679895
0.060738 0.570162 -1.145764
-0.450798 0.347956 -0.889165
0.157983 0.049127 -1.236653
0.014416 0.146306 -0.448665
-0.030495 0.401949 -0.683139
-0.398062 0.161994 -0.958665
0.572709 -0.011137 -0.108463
0.578579 -0.002465 -0.108875
0.385666 0.157203 -0.251870
0.110263 0.484000 -1.272562
-0.064022 -0.117518 -1.247627
-0.219474 -0.135439 -1.138072
0.282382 0.047332 -0.919914
-0.544416 0.057312 -0.870306
0.044773 -0.140554 -0.578985
-0.020438 -0.089604 -1.274490
-0.086806 0.383878 -1.146708
-0.351045 0.048623 -1.011802
-0.200591 0.249136 -0.636899
0.265358 0.325294 -1.006138
-0.010274 -0.060346 -0.497463
-0.210417 0.047158 -1.113887
-0.230009 -0.023499 -1.111596
0.293391 -0.006335 -0.231293
0.561676 0.059984 -0.095123
0.009887 -0.181782 -0.990135
-0.318686 0.206521 -0.699188
0.365179 -0.023391 -0.185189
0.072297 -0.130838 -1.065105
0.600930 0.007860 0.001240
0.453185 0.143708 -0.231936
0.000804 -0.163823 -0.664338
0.012958 0.403327 -1.215680
0.441787 0.180920 -0.470158
0.298196 0.067822 -0.226145
-0.149542 0.540693 -0.904648
0.089575 -0.104673 -1.106003
-0.341717 -0.211682 -1.062385
0.486578 -0.042820 -0.130840
0.408499 0.081508 -0.624161
0.089570 0.422590 -0.705882
0.289644 0.297883 -0.511945
-0.333367 0.353712 -0.973236
-0.142026 0.452884 -0.780569
-0.435746 0.108769 -0.940337
-0.282695 0.132448 -1.047185
0.018277 0.256484 -0.510624
0.430112 -0.041682 -0.157343
-0.425382 0.229785 -0.780785
-0.083006 -0.089461 -0.578409
0.487646 0.115712 -0.183896
0.582719 0.021131 -0.020283
0.326001 0.168473 -0.282877
-0.022517 -0.074508 -1.270443
0.318850 -0.019740 -0.727805
0.439497 0.053096 -0.522116
0.064742 0.541698 -1.229882
-0.237052 -0.238305 -0.986871
0.297109 0.089485 -0.924949
-0.257182 0.299103 -1.037601
0.246999 0.059722 -0.260776
-0.086024 0.220484 -1.174785
-0.208268 -0.234495 -0.972712
0.185505 -0.082851 -0.918005
0.501878 0.108651 -0.175440
-0.433484 0.121665 -0.768830
0.566983 -0.009765 -0.022143
-0.009393 0.018659 -0.456675
-0.132334 0.005094 -0.555249
0.108260 -0.083003 -0.434003
-0.224192 -0.174484 -0.795962
-0.416944 -0.162320 -0.999596
-0.031766 0.297144 -1.201170
-0.437269 -0.038135 -0.809197
0.131793 0.056808 -1.312605
-0.253990 0.433685 -1.017253
-0.045842 -0.113106 -1.260050
0.191166 0.024933 -0.301926
0.584427 0.040317 -0.092409
-0.417507 0.079704 -0.958439
0.117283 -0.080976 -1.099891
0.100738 -0.161639 -0.763454
-0.473769 0.090511 -0.800096
0.122587 0.295811 -1.313172
-0.393045 0.441829 -0.915183
-0.077917 -0.186359 -0.761232
0.010267 -0.184945 -0.955155
0.295884 0.055081 -0.224594
-0.291312 0.445822 -0.988182
-0.128802 -0.099199 -1.197632
-0.308758 0.320834 -0.996592
-0.217519 -0.049405 -0.647100
0.244025 0.299595 -1.113711
0.107136 -0.017228 -0.379673
0.259914 -0.113584 -0.461370
0.211424 0.106646 -0.299659
-0.013927 0.487196 -0.813185
0.479381 -0.006571 -0.088023
-0.402415 -0.201803 -0.953549
-0.147176 0.551623 -0.922018
0.325430 0.061016 -0.825191
0.220779 0.328098 -1.174972
-0.007158 -0.141860 -1.244913
0.389629 0.062616 -0.161871
0.504396 0.087463 -0.130949
0.557430 -0.015656 -0.034345
0.283069 0.228874 -0.374075
0.568269 0.058289 -0.116837
-0.265047 0.188228 -0.656211
-0.299274 0.212723 -0.687678
-0.152769 0.526800 -1.074876
0.332472 0.285877 -0.532579
0.108504 -0.007931 -0.374451
0.426471 -0.066028 -0.248304
0.487919 0.122031 -0.200116
-0.254418 0.527743 -1.001107
-0.044058 0.578583 -1.144882
0.435588 -0.025772 -0.133989
-0.291827 0.028568 -1.058062
0.096845 0.141885 -0.391248
0.015986 0.015340 -1.283198
0.524017 -0.019272 -0.062472
0.586186 0.012181 -0.103602
0.183530 -0.123165 -0.771072
-0.047362 -0.096015 -0.559837
0.069683 -0.146639 -0.588598
-0.177267 0.142513 -1.121838
-0.157333 -0.144413 -1.184583
-0.113442 0.371782 -1.129456
0.347643 0.190648 -0.819768
0.261804 0.358312 -0.680848
-0.088065 0.582526 -1.112350
0.281121 0.350739 -0.833485
0.574173 0.005707 -0.129980
-0.275463 0.391617 -1.008786
-0.407536 0.204856 -0.761299
0.106208 0.306878 -0.522457
0.277096 -0.101953 -0.389780
-0.093485 0.093765 -0.514641
-0.342975 0.220613 -0.988688
0.013609 0.561328 -1.189548
0.573431 0.021479 -0.024571
0.188977 -0.026645 -1.039785
0.612121 0.009696 -0.026575
0.390000 0.180064 -0.289483
0.131423 -0.146579 -0.798851
-0.007491 -0.161519 -0.659070
0.570520 -0.013620 -0.108474
0.238152 0.200435 -0.352307
0.572193 0.022005 -0.025652
-0.201429 0.401852 -0.748875
0.243636 0.152540 -1.110972
-0.066059 0.551135 -1.133572
0.168626 0.257770 -0.442656
0.323034 0.161089 -0.893439
0.457478 0.166086 -0.309828
0.492221 0.052862 -0.093094
0.123641 -0.054511 -1.146692
0.559516 0.057070 -0.083551
0.564748 -0.014109 -0.121986
0.442547 0.118191 -0.536926
-0.366640 0.402585 -0.940912
-0.513282 0.121021 -0.882126
-0.078631 -0.025227 -0.526648
0.208919 0.332037 -1.214089
-0.376422 0.290551 -0.771418
0.542238 -0.016222 -0.046020
-0.413910 0.282910 -0.926830
0.364775 -0.083805 -0.382787
0.056915 0.181267 -1.284900
0.588537 -0.016948 -0.017235
0.539875 0.020668 -0.043618
-0.142101 -0.211035 -1.206831
0.419120 -0.043437 -0.419898
-0.254510 -0.141272 -1.113682
0.260667 -0.114619 -0.480548
0.501450 -0.043894 -0.141977
0.432072 -0.049636 -0.365155
-0.123587 0.136187 -0.542722
0.572249 0.054194 -0.106171
-0.247163 0.444951 -0.811909
-0.273106 -0.108973 -1.094777
0.167488 0.421365 -1.270767
-0.279643 0.106315 -1.053795
0.175036 0.212378 -1.327572
0.204195 0.075467 -0.294692
0.181293 0.417194 -0.752342
0.041779 0.490904 -1.221805
0.514640 -0.039495 -0.118762
0.473248 0.138162 -0.415769
0.237920 -0.026843 -0.284570
0.241003 0.020860 -0.264512
0.339055 0.114863 -0.225044
0.483006 0.104736 -0.160443
-0.043336 -0.003240 -0.489645
0.260250 0.358728 -0.954677
-0.088712 0.026036 -0.515812
-0.171171 0.174526 -1.120862
0.119694 -0.151213 -0.618934
0.456878 0.036535 -0.462470
0.085175 0.252752 -1.293329
-0.102643 -0.012346 -1.201952
0.109218 0.444489 -1.278458
0.312132 0.003350 -0.213592
-0.341235 0.436691 -0.953567
0.577273 0.049033 -0.095428
0.256817 0.366807 -0.945771
0.524387 0.103154 -0.208023
-0.141154 -0.209807 -0.861439
0.581709 -0.016315 -0.018897
-0.203785 0.130810 -1.104605
-0.464070 -0.170823 -0.966901
0.522635 -0.016647 -0.060956
0.206220 0.429888 -0.981317
0.219904 0.057510 -0.280218
0.283018 0.348079 -0.835192
-0.322266 0.086654 -0.685799
0.448495 0.172428 -0.458863
0.514678 0.100214 -0.163564
0.398567 0.200853 -0.339481
-0.385775 0.399884 -0.927509
-0.194522 -0.239178 -1.173608
0.432736 0.104490 -0.565713
0.047248 0.082969 -1.294450
0.283554 -0.104973 -0.537563
0.374395 0.237603 -0.676495
-0.007220 -0.016463 -0.467377
0.257666 0.038984 -0.972091
0.097145 0.498400 -1.260638
-0.126606 0.618295 -1.078418
0.077463 0.381926 -0.633678
-0.290352 -0.206160 -0.899227
0.193767 0.254781 -0.430678
-0.039444 0.413334 -1.176047
0.439279 0.042074 -0.513199
0.358209 0.161413 -0.790513
0.336309 -0.092913 -0.388822
0.004452 -0.190234 -0.865307
-0.093121 0.435172 -0.743559
0.051483 0.198225 -1.278111
0.550872 0.027472 -0.041275
-0.158080 0.502398 -0.849518
-0.470552 0.327379 -0.878325
-0.339369 0.459508 -0.951077
-0.082674 0.023728 -0.511710
-0.311066 0.163836 -0.683167
-0.063514 -0.173925 -0.715732
0.511768 -0.027144 -0.081264
0.201575 -0.115933 -0.752122
-0.455193 -0.107619 -0.962688
0.131640 -0.003623 -0.354926
0.392715 -0.041044 -0.181695
0.491400 0.095204 -0.144137
0.024818 -0.177233 -0.968681
-0.029561 0.230362 -1.214011
-0.208859 0.474349 -1.043089
0.458117 0.069176 -0.482575
0.318120 0.141373 -0.901170
0.329282 0.069287 -0.205159
-0.182628 -0.231516 -0.965012
-0.021971 0.136607 -0.470705
0.478833 -0.019251 -0.327570
-0.411023 0.065955 -0.755120
0.192834 -0.121864 -0.476256
-0.250619 0.478976 -0.849397
0.282721 -0.100018 -0.578066
-0.268265 0.232125 -0.673705
0.439011 0.103198 -0.547273
0.425715 -0.009054 -0.480156
-0.515809 0.218070 -0.841555
0.434764 0.023597 -0.505152
0.317876 0.298485 -0.813105
-0.290147 -0.043460 -1.071406
0.096123 -0.126341 -0.519385
0.256066 -0.099836 -0.663898
-0.064131 0.453613 -1.151388
0.209704 -0.064582 -0.339698
0.414210 0.142356 -0.225425
-0.060717 0.057082 -1.220624
0.518507 0.026606 -0.293448
-0.208619 0.067808 -0.601091
0.288287 -0.059761 -0.714863
-0.017765 0.291891 -1.212194
0.072399 -0.102005 -1.158949
0.247828 0.279137 -1.112005
0.329308 0.129412 -0.865069
0.107319 -0.044606 -0.396345
0.200616 0.177754 -1.241518
0.219579 0.283909 -0.466223
0.489572 0.138321 -0.277186
0.122075 -0.001687 -1.251534
0.543739 0.005778 -0.036590
-0.013465 0.107466 -1.246359
0.121181 0.005698 -1.265884
-0.083800 0.079051 -0.506769
-0.184255 -0.208434 -1.175867
-0.267273 0.292634 -0.702740
0.250893 0.356036 -0.646950
-0.242944 0.332745 -1.042248
-0.064942 -0.209103 -1.035539
-0.275798 0.332366 -1.018519
0.221773 0.296209 -0.486531
0.481921 -0.012626 -0.089033
-0.127782 0.624901 -1.076454
0.049911 0.062392 -0.406559
0.593957 -0.013431 -0.048550
0.252149 0.191779 -1.103658
0.394666 -0.017541 -0.158837
0.337791 0.242307 -0.823130
-0.375715 -0.165322 -0.878061
0.205729 0.191766 -1.233947
0.591669 0.001828 -0.001109
0.144780 0.218566 -1.342249
-0.363940 -0.247631 -1.041826
0.593049 -0.017670 -0.027804
0.483793 0.072576 -0.412046
0.233468 -0.098209 -0.737075
-0.194134 -0.184900 -0.801351
0.514370 -0.002427 -0.059682
0.614976 -0.005588 0.016791
0.534192 -0.034869 -0.105936
0.555970 -0.015733 -0.140459
0.460955 0.102435 -0.482041
0.444802 -0.027091 -0.396151
-0.168724 0.200546 -1.118254
0.564560 -0.007824 -0.022922
0.131840 -0.150768 -0.752371
0.551729 0.059339 -0.084683
0.589236 0.012758 -0.095528
0.457742 0.056562 -0.476318
0.412252 -0.070162 -0.267558
-0.079930 0.071574 -1.204271
0.556097 0.033011 -0.043768
0.389901 -0.059883 -0.216655
-0.044586 -0.087339 -0.548189
0.485359 -0.016747 -0.089122
0.035272 0.540155 -1.208801
0.551331 -0.023973 -0.128500
0.574322 -0.017423 -0.088352
0.413107 -0.065855 -0.345602
-0.278283 0.520919 -0.984973
0.552070 -0.004146 -0.031165
0.079011 0.338648 -1.274403
0.318348 0.044330 -0.206477
0.122317 0.298035 -0.506490
-0.269637 0.051520 -1.070267
0.452345 -0.050228 -0.304955
0.269231 0.305014 -1.017360
0.427531 0.063528 -0.561551
0.212076 0.405914 -1.083212
0.422043 -0.046359 -0.170421
-0.159305 0.335763 -1.102308
0.258216 0.187615 -0.330499
-0.169524 0.491181 -1.068740
0.222698 0.185576 -0.344937
-0.037872 0.057816 -1.237044
0.275400 -0.010078 -0.246729
0.059785 0.205201 -0.449590
0.611191 0.000354 -0.029081
-0.369469 0.007647 -1.005359
-0.039840 -0.029453 -1.250312
-0.311459 0.514027 -0.911735
-0.261148 -0.046352 -1.092893
0.020802 -0.165870 -1.060240
0.093165 -0.162097 -0.810622
-0.017989 -0.153879 -0.641386
0.400988 0.089824 -0.649188
0.462867 -0.004278 -0.395475
0.304260 0.327434 -0.674667
0.624387 -0.008504 0.019227
-0.413556 -0.097234 -0.830968
0.591279 0.020844 -0.017661
0.528159 -0.036130 -0.134180
-0.102769 -0.211688 -0.882251
0.526668 0.006983 -0.252166
-0.089511 -0.198558 -1.234717
0.089544 0.203397 -0.430950
-0.444522 0.304793 -0.822755
0.560363 0.043241 -0.183016
0.502439 0.111987 -0.185514
0.348482 -0.048735 -0.222448
0.450213 -0.057479 -0.198457
0.342141 0.075049 -0.198879
0.183064 0.387698 -0.667163
0.601462 0.006135 -0.058794
0.573360 -0.010332 -0.108486
-0.058360 0.486901 -1.149962
0.515909 0.108671 -0.199200
-0.317038 -0.025871 -0.710455
-0.398372 0.361860 -0.924790
0.017145 0.235034 -0.494976
0.288166 -0.102706 -0.538735
0.621779 0.001474 0.001440
0.020064 0.589105 -1.189546
0.209162 0.096233 -1.159359
0.179479 0.095918 -0.317612
0.009615 0.164650 -1.253445
0.624270 0.000668 0.011939
0.624998 -0.008128 0.017921
0.585611 0.039769 -0.085942
0.608969 0.005432 -0.037611
0.235399 0.179258 -0.332997
0.624247 -0.001028 0.008302
0.104401 0.219750 -1.312809
0.626138 -0.004385 0.013996
0.444967 -0.027901 -0.393852
-0.197929 0.336771 -1.074168
0.131891 0.157233 -0.376209
-0.188536 0.172884 -1.108564
0.279886 0.354549 -0.765089
-0.493874 0.299804 -0.866078
-0.017663 0.592618 -1.161634
0.531184 0.095569 -0.217975
0.178459 -0.138839 -0.599615
0.127113 0.211184 -0.415917
0.176507 0.034474 -0.312070
0.280182 -0.104369 -0.404987
-0.476385 0.299922 -0.878724
0.312226 -0.099235 -0.460734
-0.248171 -0.065849 -0.681588
0.263193 0.234778 -0.386163
-0.227146 0.131909 -1.087502
0.202510 -0.040187 -0.978727
0.454055 -0.049693 -0.302289
0.271158 0.172467 -1.043986
-0.024235 0.452153 -0.753656
-0.330579 0.299186 -0.984435
0.118831 0.518613 -1.098069
0.205094 -0.131237 -0.568779
-0.022969 0.259673 -1.213850
