ply
format ascii 1.0
element vertex 1659
property float x
property float y
property float z
end_header
0.240315 -0.698423 0.058191
0.029672 0.332049 -0.731647
0.346484 -0.026003 -0.633506
0.135614 -0.214859 -0.843083
0.103696 0.322162 -0.958897
0.686303 -0.892703 -0.252365
-0.294328 0.051069 -0.896966
0.751506 -1.110770 -0.209448
0.295730 -0.043332 0.027702
0.554346 -0.860095 -0.395944
0.727012 -1.060144 -0.176600
0.536531 -0.947931 -0.097016
-0.429203 -0.027393 -0.473586
0.354553 0.024524 -0.165184
0.616082 -1.003581 -0.285954
-0.086248 0.311007 0.225240
-0.252178 0.143023 -0.167296
0.533302 -0.723126 -0.456717
-0.599489 -0.153630 -0.286424
-0.243619 0.169181 0.076550
-0.454049 -0.019126 -0.105158
0.562300 -0.519033 -0.322119
-0.268024 0.119446 -0.301089
0.551787 -0.920310 -0.077558
-0.698589 -0.230159 -0.216658
0.728361 -1.020191 -0.204356
-0.133512 0.180454 -0.943732
0.353746 -0.834685 -0.041080
-0.218602 0.009844 0.445165
0.000426 0.361567 -0.045057
-0.060736 0.015647 0.371137
0.091558 -0.535222 -0.639519
-0.068594 -0.532784 -0.575285
-0.320808 0.095213 -0.052662
0.253193 -0.555850 0.128419
0.402793 -0.890838 -0.091692
-0.414228 0.010638 -0.145816
-0.681786 -0.194708 0.058796
-0.334668 -0.013068 0.469756
0.544245 -0.981947 -0.135610
0.197025 0.165365 0.085806
0.012963 -0.695528 -0.130587
-0.166018 0.248651 0.271748
-0.094126 0.290150 0.041951
-0.166119 0.205760 -0.275449
0.269248 0.166862 -0.718596
-0.654764 -0.169268 0.098213
0.193655 -0.492707 -0.681209
-0.296253 0.119921 0.003499
0.376597 -0.652604 -0.553300
-0.265511 0.167436 0.285761
0.357955 -0.591691 -0.590774
0.745254 -1.109938 -0.207560
0.586121 -1.017658 -0.234113
-0.449005 -0.013822 -0.090710
0.246771 -0.054675 0.106019
-0.486529 -0.055824 -0.230790
0.303695 -0.204702 -0.729056
0.312175 0.007582 -0.034701
-0.344654 0.011914 -0.865253
-0.074250 0.252294 -0.652139
0.533708 -0.762361 -0.041510
-0.633533 -0.135945 0.299650
0.715979 -0.987070 -0.242184
0.661719 -0.860825 -0.169018
-0.280115 -0.456901 -0.537027
0.050974 -0.711789 -0.104929
0.304384 -0.859635 -0.252661
0.570719 -0.555215 -0.345185
0.546920 -0.638781 -0.448824
-0.212617 -0.299570 0.306729
0.529097 -0.842507 -0.411545
-0.064626 0.249177 -0.793765
0.361347 -0.410700 -0.650906
0.104811 -0.751311 -0.225424
-0.312833 0.077298 -0.366003
-0.257888 0.185901 0.441179
0.238048 -0.414564 0.162058
-0.194691 -0.393433 0.233850
-0.071868 0.270763 -0.441253
0.655859 -1.045960 -0.249010
-0.007526 0.296422 -0.793689
0.085586 0.441794 0.079874
0.404037 -0.260312 -0.043893
0.539981 -0.547322 -0.130521
0.633195 -0.878673 -0.348804
0.511169 -0.370868 -0.370172
0.504486 -0.519611 -0.494218
-0.250495 0.151947 -0.071020
0.280835 0.329326 -0.365752
0.330033 -0.867248 -0.122924
-0.125607 -0.404350 0.238120
0.124727 0.220950 -0.936655
0.512417 -0.667258 -0.034481
0.748890 -1.103078 -0.214834
-0.162529 0.200260 -0.383711
-0.098299 0.267935 -0.197883
-0.245062 -0.142893 0.397702
-0.382378 -0.009095 -0.734870
-0.169444 0.198117 -0.337974
0.053600 -0.255572 -0.850454
-0.590521 -0.355621 -0.303360
0.398811 -0.089895 -0.181824
-0.458331 -0.011977 0.031500
0.104532 -0.488607 0.187008
0.372401 -0.007768 -0.543654
0.309924 0.244021 -0.443625
0.657539 -0.825854 -0.298655
0.095098 0.440042 -0.043117
-0.124742 0.219888 -0.532418
0.515143 -0.729653 -0.028785
0.205188 -0.287770 -0.782506
0.250901 -0.308321 0.154800
0.299610 -0.629852 0.091104
-0.569107 -0.113223 -0.091220
0.225525 0.323810 -0.741741
-0.627318 -0.174063 -0.253319
-0.269663 0.128874 0.492599
0.380955 -0.878270 -0.323884
0.742324 -1.059531 -0.206803
0.289248 0.137421 -0.084437
0.570180 -0.797239 -0.413319
0.194157 0.507519 -0.228147
0.286527 -0.404842 0.131574
0.679399 -1.021039 -0.276873
-0.180465 0.134012 -1.040847
-0.192036 0.207064 0.015304
0.019045 -0.703904 -0.194870
0.513579 -0.760957 -0.456476
-0.360217 -0.458994 -0.420340
0.711064 -1.092242 -0.198018
0.488439 -0.604971 -0.022677
-0.483799 -0.102208 -0.852553
0.428596 -0.122624 -0.283949
-0.538035 -0.141543 -0.781811
-0.149731 0.149236 -1.114817
-0.389462 0.038451 -0.052198
-0.187167 0.147622 -0.796008
-0.699981 -0.242552 -0.360368
0.503022 -0.959667 -0.276314
0.339533 -0.741095 0.034360
0.628682 -1.003599 -0.128138
0.699506 -0.934551 -0.209638
0.062807 -0.726346 -0.244339
-0.090197 0.298315 0.104766
0.009018 -0.360778 0.259407
0.488504 -0.877646 -0.384574
0.393464 -0.507705 -0.605675
0.656089 -0.946966 -0.317451
-0.493404 -0.085136 -0.532758
-0.507880 -0.383728 -0.403552
-0.668145 -0.249035 0.145440
-0.190923 0.221194 0.184149
0.733641 -1.098531 -0.217499
0.263442 -0.811984 -0.069164
0.578802 -0.566381 -0.300469
-0.240150 -0.557855 -0.226483
0.392460 -0.869095 -0.065495
0.557881 -0.506145 -0.326297
0.519225 -0.871719 -0.392752
0.133237 0.246322 0.147721
0.337073 -0.634530 -0.571208
-0.107453 0.270280 -0.071108
-0.265729 0.121482 -0.299345
0.538106 -0.798940 -0.044302
0.383421 -0.501244 0.061292
-0.470860 0.008684 0.428100
-0.509141 -0.028908 0.352406
-0.536253 -0.083968 -0.064696
0.721911 -1.098393 -0.199056
0.357840 -0.222608 -0.665986
-0.570933 -0.125044 -0.223007
0.683360 -0.904040 -0.187244
-0.458359 0.002893 0.221872
0.397323 -0.889816 -0.316162
-0.074133 -0.108115 0.361184
0.690345 -0.916188 -0.196616
-0.233301 -0.447202 -0.598489
-0.163231 -0.598883 -0.142175
0.552839 -0.994008 -0.151733
-0.245039 -0.213120 0.361178
-0.669789 -0.214554 -0.321758
0.038034 -0.304886 -0.823009
0.400250 -0.138138 -0.561183
0.176554 -0.696559 0.044201
-0.338850 0.099299 0.190373
-0.224639 -0.516996 0.043598
0.497819 -0.374104 -0.182079
0.620286 -0.821160 -0.118246
0.052348 0.395669 0.203398
0.542537 -0.766062 -0.439550
-0.387299 0.029101 -0.194591
0.424610 -0.215768 -0.123844
-0.256590 -0.453826 -0.566514
-0.369165 0.023606 -0.456591
-0.632556 -0.216111 0.242816
-0.248134 -0.459861 -0.562513
0.676030 -0.969136 -0.298328
-0.573659 -0.336603 -0.449349
-0.286569 -0.143919 -0.944385
-0.001519 0.312657 -0.649695
0.201002 -0.803805 -0.159613
-0.271156 -0.539407 -0.152377
-0.611008 -0.138614 0.027338
-0.319491 0.047383 -0.677970
0.317437 -0.850373 -0.094410
0.542906 -0.468244 -0.355730
0.509041 -0.961183 -0.128161
-0.106765 -0.083144 -0.983686
0.529126 -0.487217 -0.155852
0.471141 -0.246473 -0.285279
0.733832 -1.049959 -0.233545
0.625048 -0.722825 -0.316060
-0.066833 -0.655603 -0.188063
-0.076539 -0.620157 -0.024366
-0.522060 -0.270274 0.235149
-0.076812 0.290952 -0.130902
-0.435839 0.030621 0.338156
-0.612379 -0.348735 -0.234871
0.749142 -1.107294 -0.212175
0.210696 0.455868 -0.190006
0.570746 -0.576522 -0.373128
0.460628 -0.948700 -0.166135
0.603661 -0.975999 -0.111212
-0.586115 -0.172782 -0.672672
-0.284455 0.132717 0.042309
0.366455 -0.651714 0.062995
-0.696432 -0.301291 -0.154162
0.551250 -0.999799 -0.173126
-0.307739 -0.406214 0.171260
0.317930 0.220041 -0.438139
0.138997 -0.743187 -0.055022
0.142004 0.014610 0.209820
-0.158491 0.064558 0.429973
0.149135 -0.296300 0.223441
0.512111 -0.918308 -0.076596
-0.523402 -0.067979 0.003774
0.561036 -0.647184 -0.429417
0.202416 0.408586 -0.102639
-0.329973 0.105481 0.175517
0.737672 -1.067363 -0.230460
0.398182 -0.247954 -0.040313
-0.186378 0.235038 0.313051
0.106415 0.430127 -0.289533
0.514965 -0.543812 -0.482310
-0.638323 -0.140630 0.290421
0.600169 -0.947718 -0.334325
-0.468946 0.012421 0.455630
0.573604 -0.570498 -0.213558
-0.219180 0.127980 -0.708537
-0.694348 -0.246740 0.117830
0.256561 0.407280 -0.427212
0.725709 -1.056429 -0.242841
-0.403245 -0.445001 -0.020613
-0.484818 -0.012737 0.485696
0.190655 -0.512575 -0.667541
-0.025753 0.302824 -0.519104
0.452695 -0.301425 -0.521307
-0.626081 -0.128267 0.365307
-0.200461 0.150953 -0.612840
0.643548 -1.017103 -0.136508
0.144161 0.456142 -0.356158
0.690669 -1.020647 -0.150875
0.024730 0.088405 0.309003
-0.392332 -0.034860 -0.958947
-0.411456 0.055941 0.403952
-0.010062 0.332564 -0.304883
-0.390390 0.034640 -0.091109
0.112691 -0.606189 -0.568153
0.676595 -0.861596 -0.229819
-0.134109 0.275198 0.273641
0.287321 0.220064 -0.632935
-0.277796 0.169171 0.437864
0.666882 -0.852803 -0.191441
-0.509654 -0.042414 0.185182
-0.374507 0.069976 0.192620
0.727367 -1.051396 -0.242162
0.629776 -0.963858 -0.112481
0.360075 -0.874694 -0.307448
0.111850 -0.094492 -0.898086
-0.052772 0.272515 -0.620809
0.199454 0.263893 0.024687
0.072565 -0.587194 -0.575044
-0.344613 -0.160301 -0.918209
0.415747 -0.106006 -0.233735
-0.274871 0.061338 -0.971453
-0.239268 0.195676 0.369214
0.489850 -0.784078 -0.016390
-0.063820 0.237819 -0.947465
0.660485 -0.846146 -0.178652
0.053026 0.356067 -0.671619
-0.521519 -0.105518 -0.495964
0.086119 -0.008435 0.266210
0.157139 -0.670466 -0.505873
-0.050176 -0.229330 0.321485
-0.500532 -0.097673 -0.617636
0.064134 -0.683869 -0.409053
0.341146 -0.729595 0.040665
0.558277 -1.001725 -0.237713
-0.249901 -0.367851 0.243108
0.407971 -0.419058 -0.608816
-0.002259 -0.474855 0.198559
0.367680 -0.001919 -0.179897
-0.216674 0.100079 -1.091692
-0.351403 -0.240602 -0.827354
-0.449497 -0.041540 -0.439806
-0.475213 -0.213693 -0.804295
-0.171018 -0.433146 0.201826
-0.639662 -0.146683 0.227213
0.285912 -0.810612 -0.047154
-0.427679 -0.393955 0.091091
0.120512 -0.729982 -0.045921
0.719714 -1.050445 -0.171293
0.107001 0.437244 -0.204759
0.053543 -0.605994 0.097214
-0.070915 -0.649959 -0.138482
0.082133 0.427235 -0.069719
0.324182 -0.054365 -0.688811
0.017031 -0.470492 -0.687814
0.487424 -0.842169 -0.415380
-0.408751 -0.008269 -0.445424
-0.732310 -0.241206 -0.001270
-0.403534 0.028271 -0.033517
-0.253691 0.102999 0.480520
0.032234 0.194653 0.286660
0.410580 -0.854868 -0.042307
-0.018070 0.355973 0.079031
0.204894 -0.661996 0.081675
0.517678 -0.807694 -0.033446
-0.566830 -0.160622 -0.721167
0.342488 -0.751151 -0.478909
-0.115556 0.162358 -1.105645
0.177715 0.431847 -0.055177
0.075010 0.360198 -0.851298
0.256310 -0.709029 -0.499965
0.151773 0.440027 -0.642648
0.219193 -0.798662 -0.092044
-0.263478 0.080614 -0.845533
-0.640485 -0.147168 0.229704
0.605200 -0.650016 -0.304007
-0.191461 -0.295027 0.310730
-0.265122 0.167336 0.280374
0.473361 -0.289061 -0.447813
0.152639 -0.773139 -0.268713
-0.413382 0.019826 -0.037314
0.339986 -0.850024 -0.341647
0.184294 0.472378 -0.573045
0.493021 -0.329260 -0.408294
0.307189 0.148240 -0.149759
0.148692 0.038755 0.197113
0.358419 -0.805043 -0.009441
-0.389609 -0.367936 -0.611780
-0.079602 0.312635 0.175763
0.374705 -0.716482 0.041219
0.359507 0.007901 -0.575153
-0.141539 0.161430 -1.102021
0.209572 -0.605167 -0.593892
0.250127 0.426444 -0.420994
0.473324 -0.737982 -0.482104
0.064934 0.354417 -0.818631
0.566708 -0.990735 -0.133420
0.483110 -0.305636 -0.424466
-0.075640 0.249621 -0.671611
0.193689 -0.532084 -0.653061
0.469681 -0.838566 -0.027785
-0.199823 0.228825 0.375810
0.542464 -0.546803 -0.432711
0.356922 -0.007673 -0.135615
-0.505513 -0.054571 -0.014009
0.165410 -0.237599 -0.820498
0.367001 -0.458352 -0.636035
0.486855 -0.695938 -0.493535
-0.026529 0.268734 -0.946651
-0.153110 0.248199 0.129475
0.404679 -0.040318 -0.348801
-0.472540 -0.072234 -0.588480
0.284659 -0.129925 -0.752337
-0.362280 -0.151938 0.399209
0.020476 0.334570 -0.602187
0.257050 -0.315325 -0.745240
-0.546323 -0.058224 0.370870
0.601767 -0.715446 -0.376184
0.677870 -1.035390 -0.149099
-0.566821 -0.323069 -0.506216
0.038389 0.348272 -0.616463
0.183548 -0.795741 -0.220009
-0.214346 0.154400 -0.421955
0.032809 0.324901 -0.856197
-0.415572 -0.459957 -0.199886
-0.116088 0.230417 -0.489345
-0.167840 0.163623 -0.795850
0.348258 -0.802113 -0.009038
-0.199455 0.190836 -0.113674
0.013216 0.358517 -0.219302
-0.070803 -0.511865 -0.604972
0.070420 0.359781 -0.808084
0.120048 0.255068 -0.941598
-0.637043 -0.335602 -0.206041
0.209039 0.506181 -0.402633
-0.122646 0.220994 -0.540440
0.510710 -0.978953 -0.218675
0.428975 -0.928525 -0.250412
0.471937 -0.247272 -0.374208
0.425506 -0.119407 -0.266872
-0.097570 0.305816 0.278625
0.657960 -1.053039 -0.167231
-0.713938 -0.237145 -0.143650
0.066013 -0.547109 0.152466
-0.355563 0.053809 -0.214372
0.136230 0.396214 0.064845
0.620877 -0.941932 -0.334688
-0.243784 -0.240745 -0.860060
-0.132807 0.255023 0.423786
0.738286 -1.096124 -0.220737
-0.364903 -0.009380 -0.923309
0.762645 -1.121218 -0.201015
-0.534425 -0.125734 -0.617895
0.447461 -0.492320 -0.563820
0.027101 -0.618771 -0.502733
0.371353 0.053726 -0.438524
-0.102785 -0.506835 0.146868
-0.309841 0.128601 0.258151
0.327999 -0.461537 0.102518
0.320502 -0.831309 -0.055395
0.361196 -0.841626 -0.374790
0.227513 -0.693273 0.060409
-0.348332 -0.041327 0.459666
0.028125 -0.247987 0.289056
0.425369 -0.472492 0.014832
0.281451 -0.757210 0.015869
0.725854 -1.092772 -0.221382
-0.685818 -0.198472 0.053317
0.189628 -0.758606 -0.034601
0.201953 0.019452 0.139061
-0.537048 -0.110579 -0.396438
0.549585 -0.751345 -0.056256
0.343435 -0.515349 0.091642
0.013830 0.365224 -0.140059
-0.663176 -0.169158 0.188586
0.177079 0.459512 -0.661195
-0.293078 0.150341 0.358766
0.396627 -0.762904 -0.475650
-0.407453 0.006106 -0.275387
0.025655 0.306647 -1.013882
0.389059 -0.024371 -0.488270
0.466513 -0.955109 -0.200414
-0.366061 0.041013 -0.266918
-0.137300 0.193702 -0.734335
-0.143075 0.161522 -1.084608
0.243561 0.435942 -0.351515
-0.432924 0.043669 0.474123
0.171646 0.485670 -0.269370
0.749753 -1.087416 -0.196952
-0.665033 -0.211410 -0.331863
-0.431680 -0.038159 -0.585014
0.270822 0.353939 -0.342513
-0.092987 0.231929 -0.714302
0.481493 -0.530567 -0.525626
-0.138614 0.238022 -0.153926
0.150979 -0.705274 0.022020
0.594653 -0.709068 -0.387514
0.674529 -0.882036 -0.289328
-0.285107 0.052943 -0.970515
0.004121 0.299431 -0.878395
0.226454 -0.819839 -0.181087
0.374861 -0.110976 -0.608995
0.711616 -0.996617 -0.258410
-0.447230 -0.041857 -0.467838
-0.541140 -0.097789 -0.189686
-0.058511 0.308997 -0.093771
0.228545 -0.477150 0.157305
-0.223777 0.185921 0.080707
0.349372 0.095734 -0.255596
0.275912 -0.846514 -0.168467
0.217335 -0.641888 0.095979
0.550338 -0.961934 -0.309902
-0.585353 -0.257505 0.209582
-0.038002 0.300163 -0.423571
-0.199002 0.122687 -0.989588
0.306061 -0.863782 -0.227833
-0.302231 0.105923 -0.112220
0.098673 0.413838 -0.415880
0.444205 -0.182035 -0.438694
0.664246 -0.917286 -0.142467
0.273463 -0.505010 -0.659708
0.761424 -1.119108 -0.202939
-0.611100 -0.347240 -0.271533
-0.510772 -0.375614 0.021767
-0.208967 0.110666 -1.037863
-0.197532 0.132530 -0.879309
-0.376263 -0.024892 -1.001470
-0.503815 -0.118822 -0.853246
0.192234 0.479818 -0.561902
0.234239 0.061567 0.076246
0.040451 -0.482517 -0.680901
-0.135189 0.169274 -1.068923
0.032048 0.408831 0.224684
0.541422 -0.871514 -0.391567
-0.586398 -0.126140 -0.073465
0.665497 -0.894859 -0.154306
0.098174 0.446167 0.002650
0.483777 -0.283427 -0.285600
-0.437377 -0.067395 -0.898474
0.510677 -0.363967 -0.352684
0.735386 -1.063498 -0.233108
0.030470 0.360924 0.245459
-0.275634 0.065622 -0.908623
0.694761 -1.039350 -0.263070
0.393685 -0.290190 -0.009792
-0.264884 0.153147 0.096479
0.084093 0.270296 0.206751
0.233101 0.478130 -0.444740
-0.370645 0.010784 -0.604849
-0.276947 0.154212 0.237664
0.073711 0.301222 -0.995245
-0.258071 0.115335 -0.458901
0.656681 -0.922872 -0.322077
0.519357 -0.645393 -0.047441
0.303445 -0.297718 0.106346
0.013952 0.393971 0.226107
0.542470 -0.877191 -0.058726
0.602741 -0.891609 -0.089393
0.524030 -0.402867 -0.339243
-0.271012 -0.538408 -0.138970
0.091784 -0.413566 0.220701
0.044315 0.361236 -0.513431
-0.161011 -0.597614 -0.120579
0.390294 -0.235670 -0.620185
-0.149294 -0.055686 -1.007887
0.166460 -0.732993 -0.410788
0.658429 -0.917896 -0.321051
0.367207 -0.578007 0.073587
-0.453689 -0.028507 -0.228880
-0.440176 -0.023024 -0.301698
0.551792 -0.489024 -0.259008
0.549894 -0.584881 -0.432470
-0.001392 -0.031873 0.331822
-0.432904 -0.060852 -0.862143
0.175465 -0.548239 0.149203
0.667158 -0.936164 -0.140167
-0.609907 -0.195179 -0.707353
0.344030 0.096012 -0.226215
0.762746 -1.121243 -0.201482
0.652613 -0.831170 -0.171282
0.532452 -0.635847 -0.067377
-0.336725 0.123508 0.477346
0.161899 -0.781402 -0.246521
-0.368660 -0.301175 0.272673
-0.281101 0.058943 -0.936188
0.396851 -0.638813 0.051065
-0.460532 -0.084732 -0.875215
0.170116 -0.744998 -0.026618
0.659716 -0.809770 -0.252530
0.581245 -0.799698 -0.404777
-0.286341 0.142604 0.188631
0.188985 -0.323434 -0.775324
0.602470 -0.952778 -0.330553
0.125241 -0.747785 -0.088621
-0.019389 0.278997 -0.890961
0.036348 0.341018 -0.687600
0.545711 -0.621156 -0.448389
0.072709 -0.017796 -0.944580
0.121030 -0.402107 0.215951
-0.393219 -0.030594 -0.895045
0.022819 -0.119416 -0.929332
0.489727 -0.824204 -0.026345
-0.425660 -0.039244 -0.662547
-0.098724 -0.615821 -0.360013
0.438661 -0.793662 -0.002811
-0.433377 -0.037542 -0.559185
-0.159828 0.176219 -0.719577
-0.100025 0.259524 -0.287149
-0.096403 0.203003 -1.047937
0.159301 0.480956 -0.199078
0.690506 -0.919261 -0.193318
-0.417686 -0.055849 -0.959124
-0.334899 -0.169586 -0.911052
0.556913 -0.587260 -0.138819
0.399731 -0.308896 -0.617330
-0.222124 -0.066485 0.423599
-0.019321 0.344046 -0.060201
0.311379 0.181696 -0.212595
0.359330 0.030158 -0.554406
-0.214279 0.108488 -1.009531
-0.448976 0.001077 0.099435
-0.238233 -0.133242 0.401049
0.106960 0.397600 -0.711071
0.485760 -0.295964 -0.389366
0.156440 -0.703456 0.027313
0.729653 -1.075212 -0.178010
-0.321258 0.093423 -0.070784
0.317860 -0.184095 0.057281
0.251710 0.118543 0.014606
-0.191102 0.132886 -0.942756
0.728656 -1.017757 -0.217736
0.314937 0.129228 -0.619362
-0.150522 0.187255 -0.676919
-0.002281 0.347368 -0.197938
0.346523 0.133448 -0.426161
0.648227 -0.954936 -0.318974
-0.622466 -0.296141 -0.498851
-0.596351 -0.188191 -0.761386
-0.564731 -0.157781 -0.707058
-0.507670 -0.108634 -0.682257
0.202284 -0.538622 -0.648015
0.258224 -0.356148 -0.731167
-0.686691 -0.236576 -0.424517
0.262508 -0.768682 -0.002918
-0.675159 -0.292782 -0.402253
0.527884 -0.811558 -0.428558
-0.216853 0.146931 -0.490915
-0.026572 -0.670895 -0.288210
0.246410 -0.405228 -0.717039
-0.638117 -0.205543 -0.541511
-0.645325 -0.171049 -0.024374
0.631375 -0.735908 -0.214776
0.739791 -1.097777 -0.186892
-0.350425 0.043215 -0.404129
0.673720 -0.856978 -0.265069
0.718364 -1.094755 -0.191479
0.200937 -0.803471 -0.157065
-0.398262 -0.467450 -0.140850
-0.458058 -0.074503 -0.770638
0.746592 -1.083759 -0.219964
0.383867 -0.052784 -0.174092
0.281652 0.238966 -0.171578
0.241706 -0.694194 -0.511911
0.106590 -0.617846 0.101261
-0.192896 -0.560856 -0.030800
-0.504040 -0.049991 0.028966
0.367902 0.071221 -0.382756
0.005689 -0.531104 0.156034
0.510143 -0.703523 -0.477456
0.071151 -0.419485 -0.739358
0.421869 -0.107503 -0.270592
0.706364 -0.991182 -0.265717
0.599800 -0.648877 -0.208061
-0.583681 -0.157954 -0.508879
0.066245 0.205353 0.247850
-0.537287 -0.391528 -0.184761
0.048973 -0.418970 -0.739013
0.349674 -0.167255 0.000992
-0.032215 -0.575588 0.095590
0.734036 -1.104314 -0.195330
-0.133651 0.285629 0.402143
-0.108415 0.179568 0.407483
-0.297156 -0.506497 -0.036860
0.082148 -0.302640 0.255089
0.550953 -0.489818 -0.248217
0.408382 -0.717104 -0.508607
-0.537043 -0.071559 0.102273
-0.476587 -0.084394 -0.701111
0.003882 0.343132 -0.317261
-0.505377 -0.037734 0.199782
0.338435 -0.879654 -0.156523
0.631000 -0.955671 -0.111407
0.226783 0.063664 -0.816669
-0.728938 -0.254691 -0.209306
0.412334 -0.396445 -0.605228
0.704305 -0.973914 -0.265052
-0.201409 0.145635 -0.670801
0.670512 -1.034933 -0.267148
0.686632 -0.894532 -0.254296
0.356351 -0.464862 0.080697
-0.623342 -0.168350 -0.222338
-0.266002 -0.150174 0.396723
-0.068556 0.316628 0.109999
-0.420141 -0.027596 -0.572010
0.717313 -1.082155 -0.230553
-0.548848 -0.108982 -0.251245
0.584857 -0.649128 -0.384198
-0.646728 -0.165339 0.063462
-0.557960 -0.150968 -0.691577
0.402699 -0.895457 -0.100285
-0.368315 -0.393935 0.148033
0.187600 -0.311447 0.199565
0.675594 -1.072434 -0.198873
0.290058 -0.696654 0.061878
-0.424187 0.050460 0.468525
0.711788 -1.062286 -0.246181
0.531454 -0.650254 -0.060890
-0.262989 -0.507197 -0.431375
0.464838 -0.349301 -0.516313
-0.130199 0.188033 -0.881893
-0.220546 -0.558747 -0.317977
0.541890 -0.775181 -0.437126
-0.136771 -0.429215 0.215115
0.086103 0.442210 0.079722
-0.221644 -0.537595 -0.404051
0.499597 -0.970264 -0.167038
0.520147 -0.467656 -0.445033
0.067797 0.369088 -0.661381
0.610563 -0.709842 -0.169857
-0.319620 -0.342382 0.245943
-0.076889 0.329361 0.360881
-0.215277 0.166577 -0.256448
0.011244 0.328915 -0.576843
-0.665586 -0.215711 -0.380992
-0.023262 -0.180031 0.324844
-0.312965 0.121951 0.206175
-0.297309 0.135657 0.215815
0.633873 -0.901148 -0.344059
0.175181 -0.280004 0.208832
-0.024146 -0.515811 -0.623013
-0.338799 0.061222 -0.296894
0.288971 -0.797630 -0.395534
-0.397178 -0.162198 0.389846
-0.360035 0.071760 0.062377
-0.333609 -0.497310 -0.311595
0.724304 -1.005353 -0.212626
-0.606304 -0.160591 -0.303331
0.726744 -1.022384 -0.236748
0.510287 -0.654664 -0.487621
0.460496 -0.653832 0.009752
0.081153 -0.076607 -0.920897
-0.346460 -0.467481 0.007333
0.355949 -0.743525 -0.488438
-0.477599 -0.044485 -0.180267
0.227734 -0.805794 -0.305690
0.385019 -0.485373 -0.617051
-0.666662 -0.187406 -0.007803
0.280058 0.309516 -0.545265
0.113877 -0.684852 -0.455359
-0.216499 0.197378 0.150199
0.136204 0.454927 0.025546
0.308292 0.153058 -0.159526
0.509926 -0.394711 -0.417359
-0.539108 -0.110352 -0.371768
-0.678205 -0.222994 -0.340640
0.230980 -0.821528 -0.169425
-0.376742 -0.267288 -0.782045
0.186546 0.221626 -0.854302
-0.248881 -0.148865 0.395390
-0.036227 -0.619283 0.024148
-0.238361 -0.524006 -0.419421
-0.233119 -0.313432 0.294512
-0.504669 -0.038033 0.188463
0.688505 -1.056612 -0.160990
0.028797 -0.558491 -0.592165
0.445223 -0.231807 -0.495557
-0.624835 -0.186002 -0.432189
0.079456 -0.436891 -0.725819
-0.609279 -0.122870 0.210298
-0.444750 -0.384807 0.092311
-0.408091 0.025179 -0.024839
0.581907 -0.580353 -0.318937
-0.078048 0.295101 -0.064798
0.526352 -0.836203 -0.415791
0.105390 0.102397 -0.947735
0.201745 0.401578 -0.093374
-0.099707 0.307163 0.318442
0.377209 -0.881562 -0.312085
-0.007672 0.345212 -0.168480
0.079171 0.316261 -0.989144
0.004020 0.330226 -0.483693
0.080932 0.426561 -0.065641
-0.126955 0.235374 -0.311057
-0.729928 -0.254929 -0.201880
0.613437 -1.032486 -0.170470
0.344524 -0.885829 -0.179453
-0.492633 -0.011278 0.403177
0.661847 -0.828884 -0.285099
0.038702 0.254322 0.266483
0.271104 0.267923 -0.645647
-0.476871 -0.303025 0.215551
-0.161132 0.241815 0.132698
0.222522 0.508124 -0.410275
0.034514 -0.643012 -0.465040
-0.251462 -0.551700 -0.176502
0.599877 -0.674065 -0.174829
0.270463 0.243565 -0.137416
0.096385 -0.743088 -0.261316
0.590503 -0.840461 -0.081833
-0.453669 -0.020766 -0.130145
0.095860 0.428199 -0.202561
-0.041811 0.285035 -0.576673
0.706321 -1.052847 -0.252846
0.382114 -0.753848 -0.482206
0.603463 -0.641015 -0.289435
-0.045325 -0.272266 0.305687
-0.574639 -0.159600 -0.625530
0.743118 -1.061452 -0.211501
0.022721 0.388773 0.066934
-0.086594 -0.481804 0.178877
0.387688 -0.198370 -0.615400
-0.026435 -0.239187 0.311099
-0.019778 -0.150114 -0.926492
-0.439981 -0.423640 -0.390628
0.146204 0.464985 -0.264738
-0.501543 -0.057086 -0.088139
-0.263337 0.180450 0.429123
-0.107050 -0.210503 0.343266
-0.060822 -0.634241 -0.366634
0.735850 -1.040554 -0.207231
0.210397 -0.544979 0.143841
0.145798 -0.461532 -0.706465
0.063181 -0.726883 -0.159169
0.038622 0.107260 0.294682
-0.231646 0.194497 0.273544
0.484606 -0.886167 -0.055702
-0.282891 0.128817 0.498107
0.542923 -0.519264 -0.415890
0.538549 -0.444231 -0.293467
0.519101 -0.398107 -0.373581
0.172627 0.462972 -0.569893
-0.102879 -0.182074 -0.919579
0.580274 -1.017092 -0.180023
-0.420685 -0.026493 -0.552159
-0.024987 -0.108399 -0.950098
-0.167971 0.233291 0.096060
-0.190777 -0.554862 -0.008606
0.553959 -0.864035 -0.393872
0.071475 -0.148478 -0.897837
0.523375 -0.869124 -0.050706
0.726923 -1.034705 -0.185516
0.652819 -0.910673 -0.327095
0.668845 -0.994390 -0.136014
-0.260981 0.134189 -0.187126
-0.595852 -0.172112 -0.561135
0.455261 -0.291606 -0.136833
0.504665 -0.942798 -0.310831
-0.669441 -0.180893 0.104826
0.639599 -0.871174 -0.343295
0.438030 -0.833991 -0.023059
0.445288 -0.184732 -0.246912
-0.687408 -0.196763 0.091979
0.732750 -1.090886 -0.224750
-0.121330 -0.588350 -0.410589
-0.697584 -0.225332 -0.165587
-0.513830 -0.079564 -0.245529
-0.130592 0.174643 -1.048906
0.688454 -1.061503 -0.244444
0.436844 -0.891462 -0.346650
-0.251051 -0.388475 -0.680097
-0.006537 0.113868 0.332822
-0.466182 -0.044767 -0.304613
-0.284798 -0.520185 -0.067186
0.746903 -1.098923 -0.217467
0.017468 -0.641795 -0.451242
0.178519 -0.140823 0.200263
0.718902 -0.992633 -0.205048
0.290846 -0.274043 0.114571
0.321070 -0.532465 -0.631603
-0.205791 -0.142540 -0.951561
-0.435054 -0.013052 -0.228396
-0.291719 0.086466 -0.472088
0.073488 0.429144 0.046108
0.044939 -0.232794 -0.865226
-0.732855 -0.280945 -0.155784
-0.168646 -0.566004 -0.402971
0.395499 -0.725121 -0.504508
0.011239 -0.431767 -0.724005
-0.120647 0.183599 -1.039578
-0.543448 -0.057769 0.346280
-0.141015 -0.334111 -0.789336
0.421800 -0.881862 -0.067078
0.046741 0.285880 0.248576
0.637893 -0.809684 -0.153914
0.103739 0.393899 -0.724315
0.103656 0.445096 -0.069015
-0.393739 0.041811 0.035982
0.111811 0.421660 -0.454830
0.050875 0.339449 -0.861289
0.080785 -0.733525 -0.133506
-0.363466 -0.118795 0.419957
-0.152733 0.205071 -0.425803
0.024877 0.366564 -0.239762
0.151202 0.436836 -0.677412
-0.282292 -0.534113 -0.229006
-0.246237 0.185972 0.318880
-0.367916 0.018130 -0.539798
-0.236294 0.161175 -0.103245
-0.630346 -0.172648 -0.203206
0.433850 -0.557311 -0.565807
0.206913 -0.712187 -0.474383
0.753318 -1.096206 -0.198394
-0.199974 0.148528 -0.648996
0.644143 -0.766254 -0.278368
0.516501 -0.510315 -0.471822
0.584546 -1.005119 -0.264298
-0.047267 -0.049428 -0.986448
-0.659653 -0.215531 -0.441441
-0.543248 -0.294787 0.178231
-0.136152 0.238224 -0.177363
0.684655 -0.942800 -0.161739
0.496544 -0.445392 -0.109155
0.596399 -0.869040 -0.376121
0.617746 -0.704993 -0.200665
-0.684120 -0.194405 0.087350
0.089043 0.439791 0.017708
-0.052423 0.247042 -0.950102
0.148308 0.416126 0.027121
0.540888 -0.497880 -0.405437
-0.029309 0.362432 0.280441
0.369916 0.053227 -0.300437
0.580988 -1.011349 -0.158994
-0.414700 -0.420488 0.040454
0.533430 -0.736406 -0.453486
0.400283 -0.906959 -0.274164
-0.304364 -0.511010 -0.075132
-0.698109 -0.226103 -0.169903
-0.401755 0.040703 0.106580
0.207956 0.471958 -0.202322
-0.134505 0.250176 -0.042015
0.349503 -0.664950 -0.549755
0.146693 0.438084 -0.613776
-0.415758 0.015004 -0.073827
-0.484884 -0.041023 -0.058976
-0.203350 -0.577093 -0.249577
0.672685 -0.868995 -0.192066
0.059026 0.408967 -0.058867
-0.090604 0.285035 -0.060685
-0.093281 0.306108 0.236991
0.165261 0.475387 -0.061750
-0.243696 0.172323 0.117525
-0.345446 -0.494710 -0.117815
0.582589 -0.805275 -0.079197
-0.545254 -0.074273 0.438743
0.174013 -0.035791 0.186888
0.210884 -0.811612 -0.201237
0.708163 -0.973759 -0.256296
0.381575 0.019618 -0.301811
0.002568 -0.661177 -0.386652
-0.264298 0.073423 -0.928797
0.484706 -0.621627 -0.015148
0.235121 0.343977 -0.135705
0.312286 0.178704 -0.579011
-0.461883 -0.025104 -0.098732
0.088621 -0.136591 -0.895245
0.193278 0.090960 -0.857476
-0.480969 -0.253058 0.281349
0.407491 -0.110581 -0.515791
0.591839 -1.016355 -0.157866
-0.006021 -0.686187 -0.139442
0.347828 -0.127577 -0.017994
0.682059 -0.897776 -0.278626
-0.469718 -0.025746 -0.024078
-0.529516 -0.246811 0.264276
0.537325 -0.780913 -0.437620
-0.286868 0.095776 -0.404387
0.235344 -0.773499 -0.024308
-0.578049 -0.139440 -0.331770
-0.702604 -0.233636 -0.218659
-0.428325 -0.060367 -0.904369
-0.196226 -0.523800 -0.479405
0.735433 -1.071448 -0.232380
0.470068 -0.253986 -0.252342
-0.120655 -0.271512 0.320081
0.503019 -0.397511 -0.445322
-0.138857 -0.592643 -0.366013
-0.250006 -0.551877 -0.162317
0.528408 -0.988070 -0.177661
-0.440902 0.007915 0.101453
-0.286646 0.059275 -0.873315
0.323352 0.063876 -0.641491
0.237925 0.458313 -0.379690
0.187884 0.413885 -0.066028
-0.354761 0.080323 0.116074
-0.640676 -0.332964 -0.232234
0.163681 -0.358552 0.208068
-0.026520 -0.240978 0.310604
-0.192453 -0.407903 -0.684766
-0.399571 0.066921 0.418622
0.112063 -0.698685 -0.427655
0.473797 -0.939632 -0.119358
-0.379589 0.070973 0.259111
-0.249589 0.091766 -0.849874
0.361064 0.091285 -0.366912
0.698243 -0.979564 -0.165863
0.275499 -0.082972 -0.762754
-0.493735 -0.360404 -0.508556
0.278817 -0.803267 -0.040566
0.197399 0.496652 -0.401339
0.075094 0.399134 -0.354480
-0.096229 0.002213 -1.027427
0.243919 0.445315 -0.427367
0.645134 -1.015606 -0.281135
0.725426 -1.025628 -0.188592
0.666422 -1.065267 -0.185330
-0.519304 -0.401661 -0.209019
0.120347 0.429660 -0.442835
0.627276 -0.997876 -0.124722
-0.276250 0.153742 0.224277
0.503716 -0.937320 -0.318866
0.684605 -1.045073 -0.154469
-0.513136 -0.299507 0.194935
-0.578433 -0.134028 -0.258532
-0.414848 -0.021050 -0.544308
0.708388 -1.057286 -0.164924
-0.064707 0.227472 -1.070340
0.604559 -0.981574 -0.114494
0.700845 -1.071434 -0.170534
0.004220 -0.590838 0.094301
0.365445 0.068116 -0.454151
-0.709901 -0.233546 -0.140334
-0.399094 0.061618 0.513064
0.698962 -1.079069 -0.179404
-0.191136 -0.322765 -0.788181
0.287497 0.021010 -0.732980
-0.201940 0.136981 -0.775801
0.240196 -0.077651 -0.802040
0.487376 -0.637331 -0.509097
0.106503 -0.719310 -0.037625
-0.367208 -0.450029 0.027049
0.302633 -0.433733 -0.680855
0.492914 -0.645214 -0.019039
-0.403666 -0.005923 -0.469208
-0.371059 0.057162 -0.007635
0.718357 -1.022113 -0.252470
0.734553 -1.049941 -0.232194
-0.202211 -0.117358 0.400404
0.669995 -0.970776 -0.136769
0.065324 0.387342 -0.401894
-0.318928 0.107539 0.085010
0.560555 -1.006143 -0.222619
0.265862 0.375487 -0.476563
-0.265060 -0.516708 -0.396136
0.541639 -0.766888 -0.439847
0.199526 -0.673288 0.072133
-0.151018 0.230551 -0.118242
0.360763 -0.246398 -0.663841
0.574137 -0.954377 -0.097646
-0.011100 0.362287 0.086033
-0.219205 0.182841 -0.007021
0.009199 -0.468657 0.203187
0.255648 0.381943 -0.292222
0.091491 0.381087 -0.758572
-0.213128 0.213604 0.321954
0.715566 -1.019082 -0.255879
0.648328 -0.899452 -0.128259
-0.152268 -0.215863 -0.894737
-0.024153 0.296864 -0.612203
-0.040008 0.290822 -0.521771
0.124480 -0.755644 -0.122354
0.010308 0.316754 -0.722383
-0.538246 -0.131245 -0.647948
0.263935 -0.813165 -0.071147
0.001548 0.298179 -0.867176
-0.376157 -0.287857 -0.753868
-0.137260 -0.415590 0.226966
0.215138 0.092497 0.091745
-0.294576 0.104557 -0.210629
-0.159810 -0.495508 0.133191
0.359800 -0.301022 -0.665376
-0.190186 0.200290 -0.090856
-0.498892 -0.028071 0.254710
0.403171 -0.919030 -0.184826
-0.082929 0.216273 -1.020799
-0.652091 -0.153677 0.269251
0.312966 -0.771205 0.010616
-0.561142 -0.115890 -0.209537
0.549060 -0.494239 -0.366242
0.017387 0.114032 -1.016451
-0.345777 -0.429527 -0.525353
0.145142 0.438667 -0.589918
-0.169764 -0.065354 0.407974
0.565252 -0.948050 -0.093721
0.735014 -1.043264 -0.198314
0.339277 0.078168 -0.177895
0.345820 -0.876133 -0.124511
0.246811 0.282503 -0.105327
0.020896 -0.054065 -0.958432
0.710509 -0.995099 -0.178462
0.445436 -0.188562 -0.442956
0.697010 -1.050824 -0.159341
0.548365 -0.887195 -0.063607
0.738787 -1.106356 -0.208486
-0.722952 -0.261021 -0.353514
-0.461684 0.011302 0.364527
-0.591554 -0.107142 0.399388
-0.039944 0.334356 0.034027
-0.296358 0.090004 -0.377813
0.336740 0.161925 -0.438232
-0.246479 0.182404 0.275818
-0.567219 -0.165231 -0.775968
-0.319483 0.126256 0.511629
0.348648 -0.774748 0.012889
-0.509038 -0.091000 -0.442377
-0.102503 0.230798 -0.628134
0.256595 0.347068 -0.615681
0.687670 -0.923345 -0.180796
-0.023712 0.362926 0.227571
0.674877 -0.855626 -0.236350
0.532580 -0.498826 -0.154268
0.145370 -0.378343 -0.760287
-0.198810 -0.179679 0.373958
0.069620 -0.479878 0.194985
0.072212 0.354429 -0.895440
0.460655 -0.943546 -0.258978
0.278902 -0.720160 0.046204
0.297356 -0.858109 -0.165273
0.698371 -0.926688 -0.225115
-0.647477 -0.177159 -0.079704
0.117599 0.445687 -0.208908
0.000122 -0.198176 0.311265
0.191921 -0.728730 -0.439664
-0.501839 -0.066929 -0.210817
-0.331872 0.081052 -0.116669
-0.015865 -0.614705 0.049064
-0.261847 0.184594 0.466340
0.589237 -0.862252 -0.382168
0.394683 -0.048104 -0.228738
0.703939 -1.023088 -0.160548
-0.704112 -0.273493 -0.418523
0.389831 -0.218610 -0.617047
0.450759 -0.185196 -0.291868
-0.003369 0.319704 -0.540046
-0.355596 0.041632 -0.369669
0.132661 -0.291989 -0.809896
-0.125891 0.261617 0.013132
0.377017 -0.471243 0.063603
-0.186445 0.176541 -0.433984
0.623781 -0.904701 -0.104179
0.287135 -0.852027 -0.239115
0.404754 -0.783709 0.006781
0.403956 -0.702873 -0.518217
0.041994 0.349619 -0.637371
-0.106742 0.252010 -0.312167
0.146978 0.475478 -0.138785
-0.138015 0.244461 -0.077946
-0.004148 0.281534 -1.019712
0.235796 0.114341 0.046592
0.006323 -0.485762 0.191528
0.384699 -0.731377 0.033285
-0.192326 0.126184 -1.015489
-0.474282 -0.088324 -0.775725
0.735740 -1.049850 -0.193742
-0.522614 -0.043521 0.308086
-0.194108 0.157661 -0.594274
0.106620 0.386520 -0.849113
0.691677 -0.915764 -0.261154
-0.265369 0.097785 -0.606061
-0.499042 -0.347471 0.115141
0.513109 -0.394321 -0.402357
-0.207086 0.135757 -0.737025
-0.005168 -0.639313 -0.432350
0.667689 -1.042102 -0.152204
-0.643130 -0.310374 -0.002219
0.302228 -0.309948 0.109735
0.601433 -1.021700 -0.159101
0.409457 -0.758308 0.017395
0.124419 0.401747 -0.842693
0.241330 0.298337 -0.715145
0.490122 -0.384596 -0.473808
-0.289593 -0.240213 0.342939
-0.637031 -0.152348 0.126968
-0.084104 -0.643017 -0.257541
-0.618579 -0.146592 0.347255
-0.277616 0.173068 0.485763
-0.226709 0.177294 0.001432
0.000736 0.215305 -1.052108
0.245549 -0.817039 -0.105717
0.116442 -0.677598 -0.469863
0.708496 -1.019027 -0.263298
-0.682251 -0.212722 -0.166552
-0.149664 -0.589206 -0.356778
0.360561 -0.530956 -0.616491
0.071095 -0.653550 0.047598
0.733991 -1.050274 -0.189489
-0.477109 0.008930 0.497325
0.368782 -0.565726 -0.598828
-0.534683 -0.089388 -0.150578
0.251309 0.156388 -0.759936
-0.085328 -0.637343 -0.106745
0.133607 0.451428 -0.304811
0.588358 -0.728349 -0.110697
0.273309 -0.400039 0.140834
-0.626541 -0.141785 0.349454
-0.058815 -0.470845 -0.664233
0.355710 -0.527938 -0.619903
-0.294809 0.073888 -0.600190
0.183285 -0.767455 -0.351211
0.676990 -0.904027 -0.294290
0.467597 -0.321485 -0.142784
-0.527092 -0.128974 -0.736857
-0.112700 0.241835 -0.379220
0.179622 0.309585 -0.846050
-0.515803 -0.165800 0.363907
0.213149 -0.379114 0.179469
0.699292 -1.024641 -0.156720
-0.119253 0.256154 -0.126897
-0.463673 -0.209494 0.336176
0.593002 -0.611914 -0.306475
0.723972 -1.095055 -0.187068
-0.471450 -0.423319 -0.107168
0.507415 -0.405516 -0.437620
-0.202558 0.143072 -0.691403
0.694462 -0.921415 -0.206868
-0.296204 -0.248308 -0.837985
0.727255 -1.073878 -0.236079
0.220617 0.200222 -0.803147
0.095497 -0.734140 -0.097140
0.515667 -0.376307 -0.291808
-0.025257 0.286847 -0.728571
-0.022985 0.274556 -0.909715
0.375911 -0.643649 -0.558516
-0.709696 -0.216189 0.079363
-0.581298 -0.170633 -0.696137
-0.542056 -0.145404 -0.788633
0.464301 -0.902938 -0.346150
-0.155852 -0.150137 0.377156
0.623684 -0.991160 -0.120840
-0.491150 -0.052998 -0.145787
0.600341 -0.789132 -0.388562
0.289771 0.292617 -0.508334
-0.499813 -0.091293 0.431681
0.616865 -0.885865 -0.099867
0.073260 -0.536177 0.160823
0.072908 0.406926 -0.231760
0.373886 -0.658470 -0.550419
0.384772 -0.903290 -0.147446
0.418728 -0.761649 -0.477042
0.459911 -0.606530 -0.535871
0.123038 -0.064004 0.240193
0.377906 -0.106563 -0.098764
0.479819 -0.950707 -0.268550
0.673456 -1.015607 -0.281233
0.701623 -0.936881 -0.236810
0.309525 -0.387592 -0.692194
-0.525138 -0.117929 -0.616340
-0.066385 -0.217575 -0.892149
0.710580 -1.041173 -0.256606
-0.294145 0.131775 0.132735
0.730587 -1.033089 -0.195388
0.019180 0.155044 -1.025402
0.358302 0.028607 -0.559995
0.125245 -0.574277 0.137586
-0.476287 -0.007683 0.276277
0.705235 -1.088135 -0.192709
-0.033593 0.317670 -0.246426
0.374702 0.013684 -0.236939
0.401916 -0.182761 -0.581193
-0.064130 -0.380878 -0.759214
0.690678 -1.080623 -0.206618
0.089519 0.424574 -0.181840
0.110983 0.384665 -0.918954
0.570480 -0.934875 -0.343949
-0.615072 -0.171217 -0.346436
-0.127134 0.176921 -1.056343
0.017678 -0.699318 -0.139086
0.141045 0.216391 -0.917206
0.332310 -0.451338 0.098962
0.516484 -0.443762 -0.163077
0.071919 0.405674 -0.237304
0.760430 -1.120071 -0.201525
0.229206 0.234925 -0.018309
-0.069984 -0.205907 -0.900472
0.590902 -0.629535 -0.350820
0.004727 0.373659 0.064032
-0.680142 -0.257964 0.107492
0.336243 -0.454399 0.096076
0.233334 0.348870 -0.135403
-0.048631 0.328614 0.052501
-0.064086 -0.269703 0.311012
0.146645 0.426082 -0.766672
0.290168 0.003194 0.011745
-0.160181 0.214623 -0.224945
0.701234 -0.980256 -0.170268
-0.457711 -0.290719 0.244795
0.174597 -0.791240 -0.201747
0.461081 -0.483931 -0.549115
0.585329 -0.791872 -0.402809
0.347022 -0.561180 -0.609117
-0.288326 0.071781 -0.695689
0.408580 -0.055487 -0.404679
0.515367 -0.844216 -0.412564
0.649018 -0.897356 -0.332020
0.414744 -0.485482 -0.594714
-0.312286 0.126901 0.262272
0.181416 -0.680744 -0.504130
-0.619515 -0.169889 -0.282487
0.414243 -0.886428 -0.076886
-0.286155 -0.170196 0.387481
0.028388 0.323946 0.259515
0.318083 0.025437 -0.673656
0.370708 0.062263 -0.364123
-0.413704 -0.415322 0.056067
-0.021357 -0.678618 -0.251829
-0.095125 0.228819 -0.731462
-0.211477 0.147818 -0.536423
-0.533875 -0.054990 0.280572
-0.141508 -0.609209 -0.126350
0.100075 0.442005 -0.070660
0.735430 -1.101198 -0.189301
-0.120678 0.118382 0.414054
-0.052409 -0.001866 0.364905
0.551136 -0.949506 -0.325637
-0.440834 -0.058987 -0.754433
-0.595028 -0.178314 -0.649124
0.209559 -0.520100 -0.661056
-0.605823 -0.166664 -0.386056
0.718751 -1.087081 -0.225470
0.378298 -0.890709 -0.288987
0.122517 0.438901 -0.347660
-0.262182 0.096684 -0.653836
0.672632 -1.045852 -0.154482
0.442395 -0.419650 -0.569712
-0.515584 -0.042872 0.242037
-0.613989 -0.133665 0.122114
-0.259598 0.158253 0.105853
0.455976 -0.940938 -0.259341
-0.464231 -0.072778 -0.683304
0.254196 -0.159233 -0.780897
-0.213840 -0.034759 -1.030022
-0.192700 0.181921 -0.299062
-0.369807 0.099012 0.514071
0.180122 -0.786530 -0.124349
-0.097581 -0.601199 -0.409215
-0.175465 -0.507273 0.106068
-0.354806 0.058679 -0.160123
0.409010 -0.909458 -0.124813
0.430652 -0.608985 0.030613
0.027794 0.403799 0.205350
-0.547759 -0.090457 -0.025957
0.518603 -0.902547 -0.065593
-0.139534 -0.565287 0.030945
0.448306 -0.719412 0.013923
-0.230475 0.167636 -0.082199
0.182201 0.253065 -0.855264
0.459706 -0.457432 -0.549812
0.552050 -0.512148 -0.207510
0.443098 -0.938861 -0.165099
0.412114 -0.908747 -0.118917
-0.192249 0.169014 -0.468824
0.266948 0.214588 -0.095867
-0.073149 -0.084445 0.365272
0.585352 -0.590072 -0.247758
-0.172540 -0.553344 -0.434468
0.020272 0.310403 -0.908942
-0.089412 0.157045 0.394168
0.114830 -0.645162 0.077096
0.472679 -0.532438 -0.024678
-0.220700 0.113760 -0.874233
-0.142207 -0.214793 -0.895989
0.575852 -0.585162 -0.362384
0.724735 -1.006512 -0.213101
0.440383 -0.807445 -0.009123
0.681478 -1.005331 -0.284011
-0.576166 -0.139107 -0.347423
0.554290 -1.002352 -0.224630
-0.315513 0.029753 -0.945392
0.099797 0.400139 -0.602868
0.164574 -0.461732 0.184442
0.220800 -0.438700 0.167892
-0.450294 0.013125 0.267377
0.668390 -0.974393 -0.301847
-0.438055 -0.361401 0.147608
-0.337426 0.112402 0.342790
0.285998 0.298846 -0.524790
0.153950 0.429443 -0.800959
0.025824 0.402700 0.212131
0.157331 0.443181 -0.661114
-0.275512 -0.527739 -0.079747
0.361235 -0.536457 -0.614042
0.113253 -0.133494 -0.884351
0.586136 -0.692429 -0.398059
0.526738 -0.979702 -0.149459
0.620040 -0.968673 -0.110620
-0.194033 -0.524140 0.060724
0.731713 -1.088764 -0.226371
0.684172 -0.883508 -0.234978
0.558821 -0.927196 -0.349494
0.302712 0.102362 -0.088412
-0.543627 -0.388068 -0.201910
-0.511188 -0.402387 -0.118457
-0.315596 0.103656 0.000141
0.120565 0.402147 -0.796823
0.263230 0.200469 -0.072524
0.470586 -0.807922 -0.441270
0.430277 -0.167877 -0.199429
-0.613028 -0.124679 0.226823
-0.301738 -0.159067 -0.928123
0.647967 -0.778506 -0.278234
0.319930 -0.850375 -0.091492
0.270390 -0.776860 -0.416422
0.104217 -0.643907 0.074724
0.013262 -0.593411 -0.534315
0.101944 0.357381 0.145747
0.378694 -0.252668 -0.003856
0.326657 -0.676136 -0.542668
-0.058085 0.322395 0.072986
-0.351085 0.007745 -0.850542
0.629192 -0.753297 -0.330334
-0.449746 0.012907 0.258786
-0.166445 0.244770 0.226653
0.302594 -0.533189 -0.636924
-0.238769 0.149579 -0.225297
0.412550 -0.189702 -0.115301
0.024938 0.317944 -0.861898
-0.279038 0.160274 0.337260
0.411684 -0.285820 -0.596000
0.127603 -0.694068 -0.450016
0.076976 0.270000 -0.990728
0.697311 -0.994408 -0.276442
-0.155602 0.161829 -0.948201
0.041641 0.367084 -0.410392
0.457603 -0.899049 -0.072150
0.347979 -0.503147 0.088699
0.145602 -0.758163 -0.087074
0.742059 -1.106700 -0.210684
0.001511 -0.630886 -0.457923
0.604055 -0.991924 -0.121601
0.223854 0.137543 0.054847
-0.034096 0.337324 0.010117
0.284518 0.185930 -0.669146
0.501022 -0.333657 -0.287876
-0.076363 0.247606 -0.689725
-0.503854 -0.379948 0.019584
0.321248 0.161196 -0.560573
0.539785 -0.946073 -0.094686
0.133398 0.430682 -0.567794
0.128521 -0.162757 -0.866162
-0.560188 -0.109340 -0.135902
-0.502518 -0.031189 0.253195
-0.509753 -0.101388 -0.567611
-0.544418 -0.368163 -0.019907
-0.109333 -0.622387 -0.097222
0.759178 -1.115488 -0.198535
0.587126 -1.016185 -0.163301
-0.692422 -0.204083 0.051433
-0.382260 0.030889 -0.225030
-0.097919 -0.471834 0.185326
-0.650435 -0.176113 -0.035061
0.482393 -0.942034 -0.116273
-0.360348 -0.000227 -0.854492
0.228168 0.434855 -0.237012
0.374274 -0.038855 -0.566036
0.198660 -0.699056 0.048873
0.706648 -0.984298 -0.263868
0.545243 -0.920180 -0.076870
0.291395 -0.460901 0.127090
-0.090545 -0.371271 -0.763310
0.202513 -0.025019 0.152154
0.407618 -0.909429 -0.126715
0.300123 0.103791 -0.082832
0.144182 0.322254 0.093417
0.015275 0.317242 -0.768668
0.211037 0.462400 -0.201222
0.525591 -0.948839 -0.101160
0.511537 -0.918862 -0.077109
0.583040 -0.701653 -0.405064
0.177718 -0.175274 -0.834592
0.296862 -0.159824 0.076788
0.397964 -0.024584 -0.317700
0.244290 0.386273 -0.232945
-0.413382 -0.008748 -0.402568
0.486388 -0.662470 -0.503876
0.496198 -0.413868 -0.134195
0.207133 -0.233588 0.184872
-0.630946 -0.197069 -0.509025
0.635948 -0.775210 -0.178304
0.645286 -0.881938 -0.129860
-0.195839 -0.266731 -0.844402
0.229738 0.215182 -0.005067
-0.293543 0.135342 0.171958
-0.354530 0.050553 -0.266915
0.260113 -0.442839 -0.694920
-0.354468 0.041376 -0.384878
-0.490648 -0.417067 -0.233512
0.641371 -0.996110 -0.125822
0.573367 -0.757296 -0.417964
-0.214136 0.136254 -0.656114
-0.721194 -0.244969 -0.166927
0.677627 -1.069552 -0.222899
0.277014 0.133297 -0.050085
-0.010400 0.095394 -1.027981
-0.522882 -0.034796 0.422447
0.149812 0.150428 -0.907691
0.696008 -0.920453 -0.221077
0.021748 0.368000 -0.188310
-0.569012 -0.084161 0.279272
-0.222524 0.187985 0.093835
-0.318553 0.052062 -0.628076
-0.349190 0.073046 -0.035874
-0.236838 0.111771 -0.728996
0.187969 -0.624270 0.106777
-0.069494 -0.385235 -0.753931
-0.177159 -0.019153 0.422510
-0.419940 -0.287305 -0.728249
-0.603358 -0.155068 -0.263893
0.684771 -1.070154 -0.229568
0.187030 0.477547 -0.535894
0.330726 -0.862174 -0.106894
-0.238379 0.144592 -0.293157
0.571705 -0.751426 -0.420142
0.359538 -0.461999 -0.639911
0.409019 -0.810725 -0.434014
-0.618902 -0.200361 -0.678468
0.504213 -0.761691 -0.021217
-0.330866 0.111172 0.257702
0.167140 0.430356 -0.026846
0.601287 -0.776481 -0.387527
0.066473 0.388450 -0.399885
-0.212958 0.188732 0.002233
0.678827 -1.043034 -0.260942
0.616597 -0.952087 -0.104622
0.249413 -0.084245 -0.792096
0.149241 0.485259 -0.037694
0.691768 -1.080685 -0.192251
0.009851 0.391898 0.242977
-0.181588 0.235780 0.271879
-0.594103 -0.180373 -0.685224
0.737294 -1.069450 -0.230869
0.177305 0.358812 -0.834672
-0.142111 0.210849 -0.464274
-0.186968 -0.177455 0.373017
0.395715 -0.569309 -0.585160
-0.552088 -0.124815 -0.419367
-0.616963 -0.155287 -0.122822
0.623909 -1.043441 -0.198941
0.360222 -0.656995 -0.553637
0.009092 0.351192 -0.269320
0.143385 0.225212 0.141702
-0.606478 -0.130848 0.078691
0.535686 -0.438691 -0.272333
-0.526124 -0.039891 0.391609
0.717499 -1.029927 -0.253617
-0.339528 0.091395 0.096514
0.592082 -0.973487 -0.311603
0.062340 -0.220256 0.278634
-0.267053 0.074018 -0.892050
-0.285856 0.052626 -0.966643
0.140679 0.456335 -0.316882
0.298920 -0.382499 -0.700085
0.201365 0.216540 0.050494
0.581874 -0.962231 -0.320620
0.252281 0.060760 -0.781104
0.615202 -0.787113 -0.370156
0.291561 -0.616698 0.097776
0.389220 -0.605369 0.058516
0.758177 -1.107012 -0.204427
-0.392388 -0.093031 -0.974761
0.134610 0.256027 -0.923273
-0.617530 -0.133351 0.163576
0.551921 -0.972009 -0.116747
0.020169 0.334872 -0.595077
0.516042 -0.376338 -0.324989
0.740588 -1.098896 -0.187507
-0.318591 -0.248476 -0.830284
0.280564 -0.743987 -0.467645
0.193121 -0.558874 -0.632030
0.396464 -0.847320 -0.387348
-0.345597 -0.064693 0.448137
-0.609419 -0.118278 0.270475
-0.206853 0.156168 -0.478585
0.137939 -0.754723 -0.089166
-0.595783 -0.175565 -0.606004
0.033615 -0.709538 -0.150565
0.436096 -0.760289 -0.476963
0.379587 0.014372 -0.474899
-0.032790 0.164539 0.350369
0.141390 -0.687395 0.040121
-0.607297 -0.125587 0.154607
0.059045 -0.410176 0.229291
0.049457 0.404778 -0.011221
-0.509752 -0.359205 -0.487447
-0.095822 0.281303 -0.053214
0.246508 0.266200 -0.721350
-0.138207 0.031730 -1.054878
-0.020496 0.033403 -1.011625
0.316190 -0.792107 -0.008287
-0.338111 -0.182456 -0.896976
0.180675 0.248707 -0.858539
-0.472652 -0.030809 -0.057779
0.686674 -0.942799 -0.165186
-0.010057 -0.492645 -0.656461
0.587051 -0.926086 -0.087379
0.026885 -0.594503 -0.541282
0.658775 -0.817589 -0.284316
0.101442 0.230865 0.197650
0.495343 -0.330862 -0.243030
0.156631 -0.774957 -0.270993
0.393966 -0.857246 -0.371829
0.751106 -1.114658 -0.203026
0.570416 -0.798763 -0.412774
0.415582 -0.587705 -0.568421
0.354432 -0.841066 -0.370889
-0.384514 -0.006137 -0.674476
0.022866 0.310626 -0.933528
-0.462994 0.012339 0.391643
-0.590036 -0.114211 0.117474
0.605105 -1.018937 -0.150720
0.344488 -0.179934 0.015936
0.519943 -0.497265 -0.122966
-0.333745 0.096329 0.098418
0.683051 -0.905514 -0.281107
-0.463657 -0.086939 -0.870375
0.155046 -0.631293 -0.554249
-0.444973 -0.067416 -0.818414
0.162868 0.479671 -0.253232
0.039136 0.318830 -1.000708
0.139382 0.464384 -0.200281
-0.332840 0.016787 -0.927896
0.340405 -0.041434 -0.653772
0.165596 0.449315 -0.670116
-0.382584 -0.026193 -0.951249
-0.346805 0.073522 0.504858
0.318117 -0.183701 -0.713832
0.131030 0.456959 -0.206865
0.730646 -1.069314 -0.236258
-0.576216 -0.085568 0.337456
-0.480905 -0.104545 0.423858
-0.307210 -0.479946 0.030894
0.204290 -0.718994 0.030039
0.752518 -1.092239 -0.211122
0.224464 -0.780609 -0.044637
-0.144529 0.189864 -0.706945
0.502094 -0.365680 -0.212638
0.433241 -0.927657 -0.263311
-0.650416 -0.186384 -0.166540
-0.501563 -0.078005 -0.355331
0.694836 -0.968501 -0.165650
0.321166 -0.487461 -0.651470
0.022226 -0.688653 -0.074721
-0.643512 -0.148030 0.250707
0.233512 -0.824302 -0.203132
-0.472078 -0.028161 -0.030000
0.640442 -0.827164 -0.338373
-0.540994 -0.100588 -0.226996
0.334875 -0.828054 -0.378315
-0.289619 0.097418 -0.354297
-0.012644 0.100103 -1.030753
0.469601 -0.559775 -0.012875
0.762842 -1.121431 -0.201308
0.289529 -0.644332 -0.566961
0.579273 -1.018125 -0.192644
0.343316 0.133986 -0.311600
0.493464 -0.430757 -0.113279
-0.418194 -0.030015 0.472882
-0.278872 -0.273581 -0.815183
0.507955 -0.515473 -0.085957
0.747180 -1.105844 -0.213274
-0.071429 0.308523 0.036773
0.442127 -0.838657 -0.025941
0.432931 -0.925016 -0.133369
0.685683 -1.019414 -0.147910
-0.500855 -0.323654 -0.591731
0.448992 -0.200574 -0.235872
-0.372610 0.007703 -0.623456
0.593384 -1.017274 -0.158190
-0.114405 0.252167 -0.229121
0.719208 -1.046281 -0.171345
-0.742518 -0.250145 -0.007589
-0.556942 -0.082056 0.178537
0.396653 -0.889867 -0.315314
-0.441636 0.010182 0.138197
0.154825 0.050153 -0.896576
0.617374 -0.988435 -0.302041
-0.031709 0.319276 -0.245816
0.606560 -0.774739 -0.117588
-0.366538 -0.480418 -0.097893
0.244358 -0.331867 0.160854
-0.311668 0.050910 -0.715624
-0.048144 -0.665523 -0.226510
-0.089997 0.252185 -0.487000
-0.481687 -0.057108 -0.298398
0.451754 -0.936287 -0.267540
-0.645347 -0.205011 -0.458255
0.130164 0.442920 -0.377164
