ply
format ascii 1.0
element vertex 1673
property float x
property float y
property float z
end_header
-0.691009 -0.237719 -0.356665
0.374704 0.122438 -0.500000
0.535073 -0.016498 0.298131
-0.410981 0.008798 -0.500000
-0.481591 -0.011860 0.125400
-0.844703 -0.121086 -0.500000
0.448945 -0.221319 -0.380863
-0.548297 -0.139278 0.012060
0.422370 -0.028447 -0.500000
0.474928 -0.209767 -0.500000
0.747229 -0.187561 -0.308702
0.582975 -0.024633 0.410914
-0.593443 -0.005233 0.482555
0.526968 0.124088 -0.500000
0.685552 0.000299 0.192637
0.436338 0.014500 -0.025580
-0.648613 -0.219811 -0.255509
-0.580466 0.085899 0.210472
-0.620317 -0.200951 -0.500000
0.818478 -0.145467 -0.393473
0.549726 -0.070485 0.223701
-0.683703 -0.127986 -0.022230
-0.608102 -0.056140 0.306510
-0.541931 0.007748 0.326690
0.641475 -0.157478 -0.048897
-0.328494 0.035228 -0.390606
0.309247 0.095977 -0.499567
0.529407 0.039054 -0.500000
0.604086 0.108550 0.136398
-0.622417 0.014857 0.391167
0.627173 0.115341 -0.500000
-0.713858 -0.078973 0.019717
0.594843 0.018221 0.439057
-0.633789 0.108469 0.114118
-0.378467 0.036076 -0.226279
-0.451296 0.026877 0.018107
0.452779 0.113693 -0.102629
0.564335 -0.055868 0.290165
-0.640649 -0.041234 0.290821
-0.579810 -0.047799 0.334406
-0.442115 -0.030879 -0.500000
-0.661181 0.068891 0.177718
0.652137 0.226134 -0.500000
-0.576798 0.016872 -0.500000
-0.474700 -0.152872 -0.145032
0.594634 -0.053554 0.321436
-0.340800 0.022439 -0.500000
0.766622 -0.103402 -0.500000
-0.715923 0.273131 -0.497921
-0.632584 -0.092287 0.165723
-0.777467 0.062212 -0.147833
0.672841 -0.217794 -0.272831
0.688224 0.249647 -0.390232
-0.658651 0.112964 0.065056
-0.803863 -0.202310 -0.473241
0.443972 0.069416 -0.049043
0.488773 -0.124798 -0.042725
0.657339 -0.042167 -0.500000
-0.751105 0.087945 -0.102060
-0.513714 -0.092329 -0.500000
-0.632451 0.052142 0.282738
-0.753571 0.145032 -0.220395
0.549937 -0.092387 0.159745
0.404991 -0.171529 -0.349174
0.384284 0.153863 -0.365252
-0.601854 0.021516 0.422873
0.540383 0.012655 0.318495
0.406423 -0.065956 -0.500000
0.407420 -0.059280 -0.500000
0.590839 0.238600 -0.500000
0.723995 -0.033437 -0.500000
-0.324002 -0.088213 -0.444731
0.467554 0.197491 -0.280495
0.460056 0.210997 -0.331900
-0.595403 -0.015353 0.448364
-0.391945 -0.050069 -0.191764
-0.770038 -0.089645 -0.160447
-0.639687 -0.033262 0.309851
-0.654522 -0.031888 0.270031
0.583596 0.084190 0.217491
-0.418456 -0.169004 -0.500000
0.622393 0.285015 -0.454973
-0.532408 -0.165156 -0.086797
-0.561336 -0.166270 -0.064411
0.550166 0.033454 0.317931
-0.729814 0.158973 -0.198384
-0.338767 -0.039776 -0.500000
-0.798712 0.132427 -0.314544
0.652637 0.197415 -0.187090
0.774895 0.224045 -0.461232
-0.425400 0.127248 -0.202354
-0.606804 -0.274564 -0.416311
-0.578051 0.032842 0.379240
-0.846781 0.116681 -0.500000
-0.552504 0.007268 0.361729
-0.594430 -0.002142 0.491993
-0.809324 -0.147614 -0.372018
-0.580271 0.147884 0.005130
0.588837 0.064418 0.284749
0.697074 0.037412 0.132431
0.478858 0.102969 -0.500000
-0.552471 -0.236022 -0.500000
-0.804666 -0.116927 -0.305047
0.750311 -0.018486 -0.500000
0.817303 0.033739 -0.254956
-0.424988 -0.113504 -0.176813
0.563121 0.014197 0.388696
0.602641 -0.157911 -0.027281
0.505723 0.017234 0.202335
0.828628 0.016498 -0.286207
0.826480 -0.090883 -0.334082
0.605778 0.051271 0.324144
0.410357 0.159138 -0.308353
-0.615840 -0.062836 0.277529
0.365123 -0.006939 -0.261087
0.594713 0.008087 0.472661
0.512009 0.284551 -0.486489
-0.593918 -0.054245 0.319174
-0.491661 -0.116471 -0.500000
0.571729 0.142233 0.020448
-0.633326 0.048962 0.289291
-0.332595 -0.113401 -0.447803
-0.575039 0.101156 0.157338
0.448765 0.023343 -0.500000
-0.705803 0.138792 -0.095450
0.725014 -0.038441 -0.500000
-0.708161 0.270942 -0.480888
0.436373 -0.168960 -0.500000
-0.441699 0.083243 -0.500000
0.488853 -0.151516 -0.113510
0.572794 -0.041907 0.344420
0.550255 -0.099673 0.138041
-0.592628 -0.010958 0.463396
-0.637357 0.096610 0.146123
0.719708 0.271710 -0.498858
0.602103 -0.008487 0.459345
-0.611204 -0.044118 0.341347
0.392700 -0.050380 -0.189573
0.716596 0.226607 -0.500000
0.731002 -0.139893 -0.500000
0.838913 0.114162 -0.402697
0.761630 0.247974 -0.498952
0.606998 0.028193 0.395581
-0.682737 0.033435 0.181862
-0.560948 0.042060 0.323033
0.489739 0.071850 -0.500000
0.618779 0.047085 -0.500000
-0.686766 -0.249580 -0.500000
0.654114 -0.003212 0.297149
0.555598 0.255731 -0.500000
0.718643 -0.272371 -0.499364
0.468032 0.205734 -0.302977
0.376998 -0.061303 -0.500000
0.571358 0.021028 0.398592
-0.647589 0.014441 0.312884
-0.719827 0.133265 -0.112442
-0.544165 0.152908 -0.035407
0.399540 -0.018625 -0.148987
0.544049 0.034437 0.299561
0.576470 -0.069593 0.261301
0.618236 0.022499 0.388155
-0.639890 0.058658 0.250393
-0.597010 -0.240500 -0.301759
-0.589039 -0.003518 0.481468
0.603764 -0.020228 0.424153
-0.634146 0.105962 0.121512
-0.553316 -0.108892 0.113280
-0.634456 0.163411 -0.061677
-0.502256 0.013736 0.192941
-0.674731 -0.084950 0.107851
0.599672 0.001540 0.478288
-0.426913 -0.048807 -0.078132
-0.652370 -0.235463 -0.309163
-0.671645 -0.036395 0.212180
0.565368 -0.180742 -0.109649
0.477060 0.207368 -0.292489
0.750092 -0.019367 -0.500000
0.853800 0.097434 -0.426947
-0.827243 -0.186683 -0.497550
-0.360732 0.073503 -0.313160
-0.654198 0.237040 -0.315758
-0.642321 -0.168652 -0.500000
0.530129 -0.027879 0.269701
-0.667931 0.063973 0.172455
-0.733823 -0.210076 -0.342392
0.422154 0.123246 -0.203132
-0.447792 -0.162691 -0.227657
0.366200 -0.012430 -0.500000
-0.415823 -0.148381 -0.500000
-0.329696 0.053357 -0.396644
0.853526 0.001336 -0.500000
0.561226 0.115059 0.101807
0.784393 0.142251 -0.500000
-0.390614 0.122559 -0.289655
0.709289 -0.181870 -0.218949
-0.577502 -0.073431 0.249600
-0.710536 0.237324 -0.382276
-0.454487 0.130391 -0.134937
0.697171 -0.236255 -0.360211
-0.687814 0.126136 -0.500000
-0.592229 0.169358 -0.064537
-0.714945 -0.011502 0.092852
0.842459 0.049721 -0.500000
-0.527620 -0.156963 -0.500000
0.495872 -0.116625 -0.006645
-0.356334 -0.127358 -0.396868
0.659001 0.030859 0.258173
0.602764 -0.006393 0.462052
-0.379236 0.039180 -0.500000
-0.520837 -0.134486 -0.009288
0.567590 0.097347 0.164345
-0.616869 -0.022540 0.391397
0.795382 0.170865 -0.500000
0.649046 -0.064858 -0.500000
0.740675 0.254353 -0.479808
-0.740705 -0.084442 -0.066134
0.525080 0.028111 0.253917
0.656217 0.225870 -0.281525
-0.500499 -0.249762 -0.388203
-0.432736 -0.002994 -0.035451
0.590373 0.189835 -0.132862
0.590741 0.000119 0.491316
-0.404065 0.069745 -0.172398
-0.422704 -0.245528 -0.496672
0.718930 0.123652 -0.087477
0.662480 -0.023510 0.256586
0.526221 0.022567 0.263952
0.718933 0.033371 -0.500000
0.445124 -0.130250 -0.500000
-0.591188 0.261592 -0.372004
0.840430 0.131878 -0.433592
0.833173 0.160298 -0.461559
0.587520 -0.004598 0.475267
-0.584648 -0.010530 0.454480
0.738731 0.244176 -0.447272
0.596416 0.014433 0.450812
0.533460 -0.064619 0.206334
-0.831504 0.034619 -0.302213
-0.694239 0.273101 -0.470475
0.506729 0.020740 0.203124
-0.614913 0.008562 0.422644
-0.658613 -0.114175 0.061620
-0.487109 0.083301 0.050001
0.705754 0.028008 0.113843
0.566825 -0.188547 -0.134675
0.599497 -0.004091 0.475370
-0.304937 0.006012 -0.461564
0.568210 -0.206746 -0.194227
-0.474697 0.020095 -0.500000
-0.635207 0.180979 -0.500000
0.615307 -0.084964 0.207477
0.768614 0.047953 -0.105706
-0.631507 -0.024263 0.349258
-0.611136 -0.167524 -0.061555
-0.667902 -0.101025 0.081472
0.592638 0.009660 0.467715
-0.777041 0.201277 -0.408338
-0.644089 0.291382 -0.500000
0.626945 -0.068913 0.244439
0.681588 -0.118406 0.007761
0.799124 0.166379 -0.382090
-0.627756 -0.071568 0.235295
-0.605536 0.121986 0.091353
0.311371 -0.094279 -0.500000
-0.371701 0.048157 -0.500000
0.549846 0.217115 -0.238098
-0.594472 0.000596 0.495746
-0.575859 -0.283290 -0.500000
-0.808591 0.137421 -0.500000
0.622312 0.021988 0.378774
-0.423786 -0.107934 -0.169988
0.519654 -0.059839 -0.500000
0.489743 -0.034143 0.136396
0.651299 0.232356 -0.500000
-0.468913 -0.218709 -0.338759
-0.382792 0.052380 -0.223230
0.773733 -0.079558 -0.157180
0.680318 -0.235933 -0.338178
-0.466102 -0.211962 -0.500000
-0.601245 0.001638 0.473100
0.823944 -0.023232 -0.500000
0.729667 -0.123629 -0.113445
0.480524 0.096875 -0.500000
-0.417833 0.002127 -0.085078
-0.355048 -0.068683 -0.326655
0.634111 -0.011134 0.359132
0.520772 -0.170618 -0.500000
-0.686941 -0.182085 -0.500000
-0.614838 -0.077709 0.231243
0.726653 -0.091541 -0.039045
-0.566794 -0.095206 0.170536
-0.680272 0.213436 -0.268198
0.513504 -0.130709 -0.010549
0.754136 -0.119147 -0.167085
-0.718897 -0.056983 0.040403
0.587236 0.083706 0.220239
0.589946 -0.087022 0.209706
0.700952 -0.240117 -0.377089
-0.759525 0.207236 -0.385457
-0.747653 0.175642 -0.279325
-0.654277 -0.050255 0.236719
0.820026 -0.123724 -0.360829
0.525095 -0.022210 0.260762
0.535830 -0.027297 0.287791
0.686134 -0.009877 0.188950
-0.634217 -0.042830 0.302657
-0.475422 -0.150227 -0.500000
0.606701 -0.222961 -0.244536
-0.432542 -0.173864 -0.500000
-0.510378 0.011998 0.220570
-0.461485 -0.199736 -0.500000
0.671341 -0.198880 -0.500000
0.734386 -0.261667 -0.500000
-0.393786 -0.081829 -0.218945
-0.467310 0.048189 0.050226
0.566778 0.232999 -0.500000
0.646360 0.000104 0.323279
-0.317334 0.116897 -0.500000
0.615445 0.213293 -0.500000
0.477102 0.120639 -0.500000
0.570423 -0.136777 0.037719
0.667973 -0.044093 -0.500000
0.636565 0.084528 0.183543
-0.667639 0.236632 -0.326736
0.529019 0.284641 -0.472730
-0.651255 0.262882 -0.397284
0.571261 -0.045119 0.332558
0.562227 0.179491 -0.500000
-0.596433 0.014025 0.452130
0.547999 0.003575 0.348383
0.714670 -0.196766 -0.500000
0.755473 0.024061 -0.046349
-0.598076 0.041870 0.359545
-0.597351 -0.005847 0.476371
0.561860 -0.103032 0.140884
-0.611435 0.083275 -0.500000
-0.593042 -0.000416 0.498287
-0.417881 0.007016 -0.085343
0.714082 -0.062081 0.047454
-0.473174 0.075995 0.026058
-0.511158 0.112329 0.036052
-0.703096 -0.080765 0.045777
0.770460 0.152266 -0.278569
-0.596016 -0.021365 0.428229
-0.400753 0.076434 -0.190680
0.843877 -0.133297 -0.445956
0.726203 -0.252766 -0.451854
-0.592922 0.154474 -0.014914
0.748464 -0.112410 -0.138561
0.583806 0.020834 0.423623
0.576030 -0.075925 0.240421
-0.425124 0.051536 -0.086457
0.550251 0.193631 -0.500000
-0.326516 0.081006 -0.429509
0.618942 0.196919 -0.161918
-0.475503 -0.091635 -0.500000
-0.634695 -0.123031 0.067353
0.489059 -0.148968 -0.500000
0.841718 0.134923 -0.442183
-0.435950 0.140924 -0.204214
0.628677 0.016974 0.369335
-0.689319 0.167057 -0.142213
-0.488779 0.029530 0.137820
0.695270 -0.064123 0.098604
-0.537022 0.142078 -0.500000
0.517245 0.156430 -0.079860
-0.628745 -0.168762 -0.074785
0.603173 -0.263784 -0.379891
-0.500006 0.243637 -0.369680
-0.490407 -0.156579 -0.124614
0.599180 -0.038355 0.370677
-0.580658 0.025219 0.405899
-0.661526 -0.031655 0.249426
-0.666301 -0.024707 0.243243
0.549606 -0.018762 0.341359
-0.770506 0.117441 -0.208511
0.589883 0.002520 0.485728
0.683265 0.118294 0.004697
0.604443 -0.014563 0.438965
-0.565851 -0.040955 0.335577
-0.816310 0.015395 -0.500000
-0.402396 -0.088679 -0.201784
0.590779 0.199507 -0.500000
-0.829066 -0.156340 -0.442851
0.623240 0.267114 -0.395939
0.581074 0.040587 0.358663
-0.377690 -0.116934 -0.317722
0.744186 0.092132 -0.089177
0.699460 -0.279097 -0.500000
0.581289 -0.125891 0.078443
-0.612170 -0.230136 -0.269682
-0.601541 -0.274201 -0.414412
0.550738 -0.028428 0.329271
0.637324 0.133208 0.032397
0.780105 -0.023901 -0.500000
-0.632902 0.061816 0.255367
0.593705 -0.009934 0.466864
-0.608722 -0.176134 -0.089347
-0.764562 0.216100 -0.419027
0.509904 -0.098936 0.068589
-0.612857 -0.002726 0.434322
0.732534 -0.025604 -0.500000
0.447484 0.144870 -0.185259
-0.468114 -0.009911 -0.500000
-0.579981 -0.013697 0.436216
-0.364521 0.053302 -0.283163
0.668835 -0.051465 0.195450
-0.338926 0.002376 -0.500000
-0.611916 0.039703 0.353892
0.597405 0.000905 0.486130
-0.488040 0.048181 0.113991
-0.673993 -0.010992 -0.500000
-0.790782 -0.165203 -0.358124
-0.729420 -0.236567 -0.409705
0.588174 -0.237640 -0.292320
0.497349 0.127255 -0.031338
-0.574986 -0.261308 -0.373174
-0.520879 0.131367 -0.000095
-0.796923 0.159921 -0.362936
-0.606838 0.055697 0.308972
0.529386 0.184418 -0.150647
-0.476505 0.239403 -0.500000
0.714900 0.242590 -0.500000
-0.638086 -0.115568 0.086912
-0.387790 -0.106827 -0.272186
-0.559556 -0.249663 -0.339798
-0.518183 -0.076770 -0.500000
0.595181 0.004168 0.484818
-0.536067 -0.140149 -0.004671
-0.697497 0.053669 -0.500000
-0.668623 -0.083620 0.124955
0.471850 -0.127759 -0.087678
-0.476659 0.035386 0.093560
-0.636958 -0.092880 0.157963
-0.527603 0.016486 0.274079
0.343460 -0.092846 -0.500000
-0.789801 0.047306 -0.173577
0.531088 -0.101115 0.104188
0.624511 0.015941 0.383309
0.657128 -0.119935 0.047197
0.551105 0.096712 0.148221
-0.725212 0.125682 -0.107227
-0.682662 0.146076 -0.070732
0.444305 -0.259173 -0.500000
0.554341 0.008791 0.366729
0.442069 0.176851 -0.500000
0.648577 0.017720 -0.500000
0.509431 0.270414 -0.500000
0.659191 0.113610 0.062290
-0.590142 -0.024667 0.417086
-0.626882 0.070177 0.240734
-0.570818 -0.024125 0.389979
-0.417612 -0.027699 -0.500000
0.643199 0.022904 0.317118
-0.531733 -0.086057 0.147209
-0.634707 0.098762 0.143086
0.582568 -0.002287 0.463280
-0.770643 -0.022298 -0.095654
0.422510 -0.081035 -0.130263
0.594208 -0.277490 -0.424970
0.617629 0.033619 0.361755
-0.386308 -0.216650 -0.500000
-0.622712 0.084348 0.202285
0.637264 -0.077621 0.202715
-0.591482 -0.012073 0.459282
0.472252 0.043649 0.070941
0.597578 -0.142255 0.025606
-0.643636 0.106746 0.106665
0.669543 0.107181 0.061644
-0.582838 0.018402 0.429368
-0.691373 0.265046 -0.441978
0.347231 -0.157104 -0.473272
0.562424 -0.064036 0.262968
-0.683920 -0.106141 0.034883
-0.553504 0.097403 -0.500000
-0.303211 -0.021012 -0.500000
-0.588381 0.180471 -0.101799
-0.565517 0.001652 0.407081
0.766207 -0.061363 -0.111438
-0.547634 0.023902 0.328060
-0.589801 0.221951 -0.500000
-0.437543 0.116928 -0.500000
0.580803 -0.226880 -0.257421
-0.657282 0.050416 0.228587
0.590470 -0.008017 0.471613
0.597541 0.004211 0.480181
0.430085 -0.228435 -0.500000
-0.689238 -0.043728 0.148687
0.719157 0.151078 -0.500000
0.593252 0.224421 -0.248069
0.690317 -0.064536 0.111716
0.550142 0.072622 -0.500000
0.497019 -0.090998 0.058298
-0.522856 0.287581 -0.486980
0.784447 0.061632 -0.169321
0.791772 -0.096339 -0.235263
-0.589443 -0.001526 0.486038
0.316899 -0.078346 -0.457774
0.827372 -0.145527 -0.418617
0.621134 0.285424 -0.455912
-0.510496 0.058973 0.161023
0.358399 0.097592 -0.348024
0.740681 -0.020389 0.004196
-0.636233 -0.060544 -0.500000
-0.352803 -0.036028 -0.310746
0.639590 -0.016415 0.336424
-0.597103 -0.282842 -0.442891
0.335071 0.069215 -0.391288
0.666653 -0.202735 -0.218607
0.442447 0.083212 -0.074399
0.542531 -0.071449 0.207750
0.555350 0.003253 0.372892
0.611149 0.014566 0.423320
0.340571 0.008782 -0.343084
0.721739 0.177241 -0.229534
-0.586038 -0.151360 -0.005120
0.561082 -0.195383 -0.160095
0.577036 -0.014027 0.428299
0.532796 0.212665 -0.500000
-0.666735 0.156827 -0.077168
-0.577393 -0.103007 0.152550
-0.616066 0.036846 0.355703
-0.767794 0.081773 -0.142215
-0.453329 0.206460 -0.331529
-0.443809 -0.030071 -0.008427
-0.600044 -0.016670 0.440113
-0.582285 -0.024337 0.410894
-0.791180 0.167444 -0.363950
0.481502 -0.080512 0.040644
-0.478478 0.171004 -0.186671
0.706071 -0.072707 0.052864
-0.655870 -0.007587 0.290050
-0.684465 0.284246 -0.500000
-0.492592 -0.202261 -0.253217
-0.582532 0.035593 0.376005
-0.549450 -0.010115 -0.500000
-0.816174 -0.015341 -0.244528
-0.740850 -0.004014 -0.500000
-0.594459 -0.008013 0.473032
-0.701195 0.041572 0.114712
-0.615326 0.028445 0.380171
0.588275 -0.044340 0.351237
-0.563085 0.029228 0.359767
-0.761743 0.031471 -0.071050
0.580882 -0.059895 -0.500000
-0.550500 0.046999 0.288012
-0.747175 0.153424 -0.224207
0.598009 -0.001760 0.483378
0.586323 -0.046961 0.341722
0.672435 -0.048528 0.190692
0.519566 -0.103502 0.076315
0.345632 0.144127 -0.455298
0.416419 0.237587 -0.487421
-0.862807 0.078852 -0.435877
0.398214 0.186518 -0.500000
-0.755763 0.014128 -0.043442
0.434269 0.180740 -0.302576
0.605209 0.075325 0.245821
-0.556025 0.252090 -0.500000
0.583601 -0.174558 -0.500000
-0.300559 -0.040387 -0.485192
-0.585717 0.032476 0.388803
-0.547396 0.034332 0.308807
0.312320 0.055750 -0.500000
-0.664276 -0.173430 -0.500000
0.497802 0.031943 0.164201
0.595605 -0.215863 -0.500000
0.547364 -0.181904 -0.500000
-0.450109 0.238704 -0.427935
-0.608909 0.130868 0.060700
-0.525206 0.215361 -0.500000
-0.599937 0.028747 0.401689
-0.385186 -0.045235 -0.500000
-0.485076 0.116218 -0.500000
-0.721677 -0.090084 -0.022648
0.522048 0.059030 0.191463
-0.587837 -0.193045 -0.500000
0.644855 0.210084 -0.221022
0.618965 0.005080 0.412931
0.799026 0.067202 -0.221275
0.393517 -0.109763 -0.500000
-0.781569 -0.155596 -0.314035
0.521371 0.179717 -0.500000
-0.501561 -0.055729 0.142079
0.602217 0.000599 0.470355
0.445513 0.115207 -0.500000
-0.437132 0.149435 -0.220593
-0.805046 0.044109 -0.220829
-0.545041 -0.032385 0.306153
0.745761 0.022181 -0.013410
0.751845 0.089061 -0.106030
0.564975 -0.019525 0.385204
0.404206 0.088680 -0.196317
0.866842 0.030797 -0.417424
0.348616 -0.096258 -0.376590
0.558336 -0.130898 0.048337
0.595538 -0.218217 -0.500000
-0.723698 0.067194 0.011155
0.835753 0.094295 -0.367011
0.635606 -0.119477 -0.500000
0.341032 0.042445 -0.352857
-0.422773 0.143632 -0.243300
0.718963 0.137646 -0.121169
-0.719084 0.263041 -0.500000
-0.799958 0.011697 -0.189818
-0.600152 -0.014102 0.447801
-0.764069 0.074270 -0.500000
0.726311 0.263615 -0.484171
0.478950 -0.075285 0.043520
0.541508 -0.282568 -0.457609
-0.562287 -0.035320 0.343225
-0.475575 0.003777 -0.500000
0.768872 0.057014 -0.115187
-0.404702 -0.028353 -0.500000
-0.460528 -0.030856 0.045492
-0.321110 0.027329 -0.412008
-0.590405 -0.169043 -0.063562
0.585243 -0.042952 0.354303
-0.778600 0.213877 -0.500000
-0.449996 -0.012623 0.020326
-0.562646 0.029384 0.358353
-0.638797 -0.076216 -0.500000
0.703827 0.222081 -0.326819
0.704990 0.014353 -0.500000
-0.622384 -0.020376 -0.500000
-0.700256 -0.109506 -0.010141
-0.517160 0.130677 -0.500000
0.418598 -0.101171 -0.173067
0.597060 0.153434 -0.011595
0.356582 -0.112092 -0.373185
0.643302 -0.090318 0.155951
0.661293 -0.014913 0.268111
-0.537671 -0.033309 0.283746
0.518411 -0.272199 -0.500000
0.420086 -0.004598 -0.077728
0.582396 -0.030414 0.392254
0.422567 0.194060 -0.361679
-0.545468 0.035950 0.300430
0.410062 0.027827 -0.117941
0.502918 -0.244684 -0.500000
0.687836 -0.178812 -0.174145
-0.595617 0.008895 0.469397
-0.607503 0.130964 0.060910
0.529207 0.022619 0.273306
0.357304 -0.041701 -0.298984
-0.374844 0.068560 -0.263345
-0.624980 -0.053311 0.293362
0.587489 0.062885 0.289478
-0.586788 -0.004354 0.473767
-0.472749 0.056076 0.056685
-0.432034 0.103100 -0.138143
0.683156 -0.019035 0.193974
-0.526884 0.175694 -0.500000
-0.655142 0.109567 0.080687
-0.637979 0.012731 0.345283
0.500100 0.027194 0.176241
0.622627 0.189701 -0.500000
0.413485 -0.173822 -0.333754
-0.567087 -0.046368 0.322379
-0.504003 0.032774 0.182791
0.558446 -0.016570 0.371229
-0.395071 -0.063878 -0.194363
-0.670628 -0.045284 0.201420
0.384249 0.134663 -0.329019
0.627765 0.002996 0.384829
0.610141 0.146693 0.007828
-0.585398 0.134742 0.050079
0.417981 0.173338 -0.321909
-0.374076 0.133406 -0.355542
0.556188 0.271777 -0.414350
0.465603 -0.047160 0.046106
0.879366 -0.031464 -0.459161
-0.642009 0.105948 0.111367
0.709299 -0.041550 -0.500000
0.531363 0.072927 0.180975
-0.373784 0.097458 -0.300723
0.481687 -0.056027 0.083584
-0.687177 0.227453 -0.320160
0.410062 0.023796 -0.500000
0.703450 -0.250124 -0.410954
-0.476101 0.003035 0.109060
-0.384051 0.001357 -0.197656
-0.515077 -0.034980 0.214240
0.706890 0.264136 -0.458358
-0.842892 0.080278 -0.373809
-0.439817 -0.164469 -0.249965
-0.584842 0.039494 0.365337
-0.388650 0.072524 -0.223872
0.520114 0.255099 -0.384673
-0.707117 -0.021223 0.114212
-0.568569 0.010406 0.410430
0.773360 0.039170 -0.500000
0.470784 -0.052387 0.055711
0.616126 -0.274216 -0.417201
-0.475216 -0.115491 -0.050679
0.518125 -0.098209 0.087652
-0.573102 -0.132771 0.052318
-0.714804 0.252203 -0.433089
0.717740 0.014346 0.082598
-0.618582 0.033128 0.361177
0.549683 -0.044429 0.292361
-0.504272 0.050110 -0.500000
-0.635097 0.133122 0.034946
-0.690250 0.086022 0.068073
0.628640 -0.123219 -0.500000
0.724492 0.031276 -0.500000
0.402732 -0.113693 -0.239809
-0.627228 -0.103257 0.137753
-0.701651 0.277771 -0.493799
0.507852 -0.129354 -0.016840
0.595200 0.099540 0.168144
-0.547126 0.065380 0.233112
0.685837 0.128222 -0.027004
0.599442 -0.004578 0.474582
0.688225 0.029028 0.169259
0.510867 0.171253 -0.133596
0.297249 0.006875 -0.487247
-0.511332 -0.061168 0.158966
0.541465 0.071513 0.205504
-0.559950 0.138701 -0.500000
-0.324494 0.014510 -0.500000
0.704556 -0.241476 -0.386185
0.811896 -0.195889 -0.478308
-0.726570 -0.124484 -0.107778
0.556239 -0.041674 0.314006
-0.598288 -0.111731 -0.500000
0.479335 -0.073606 0.047650
0.325299 -0.090849 -0.443407
0.486767 0.027462 0.133142
0.864575 -0.086890 -0.449363
0.698944 -0.230001 -0.500000
-0.624815 0.047954 0.308802
0.626327 0.037817 0.332734
-0.414513 -0.106150 -0.500000
-0.489195 -0.189334 -0.220297
-0.561985 -0.132450 -0.500000
0.439701 0.047436 -0.035997
-0.478583 0.119870 -0.500000
0.593213 0.131619 0.061270
0.618654 0.033774 0.359315
0.698306 0.039670 0.125970
-0.796448 -0.134988 -0.312904
0.859492 -0.057405 -0.500000
0.674373 0.182816 -0.166561
0.422649 -0.087666 -0.139634
0.645300 0.061459 0.231741
-0.481284 -0.098922 0.001748
0.489724 0.088545 0.045672
0.775794 0.152439 -0.500000
0.504879 0.045210 -0.500000
0.825026 -0.146691 -0.414056
-0.606111 0.002965 0.456309
-0.593971 -0.000425 0.497475
-0.601220 -0.021478 0.423745
0.629171 -0.181709 -0.117357
-0.760126 0.035049 -0.068084
-0.580919 0.047102 0.337623
-0.524208 0.159163 -0.078432
-0.667835 -0.155425 -0.074513
-0.823743 0.150887 -0.500000
0.809182 -0.087111 -0.275847
0.843900 0.066458 -0.500000
0.488202 -0.090397 0.037801
-0.477790 0.013125 -0.500000
-0.394937 -0.217448 -0.500000
-0.489145 0.027287 0.140958
0.466710 -0.021110 0.072064
-0.424629 -0.099812 -0.153426
-0.614947 -0.151867 -0.011319
-0.525080 0.198495 -0.199683
-0.463044 0.081553 -0.012388
-0.481917 -0.076408 0.049641
0.548482 0.162433 -0.061716
0.671843 -0.073359 0.141860
-0.403100 -0.225622 -0.500000
-0.332566 0.033461 -0.376384
0.514037 0.079251 -0.500000
0.594820 0.002317 0.490842
0.736462 -0.045463 -0.000552
0.478669 -0.151121 -0.500000
-0.574811 0.007312 0.433590
-0.614759 0.025432 0.389175
0.632319 -0.019832 0.354232
0.600753 -0.006885 0.466286
0.579190 0.238352 -0.295907
0.745862 -0.053465 -0.038726
-0.623604 0.225498 -0.258396
-0.569388 -0.106414 0.136409
0.397087 -0.045887 -0.500000
0.489261 0.048614 0.117080
0.766391 0.146168 -0.255060
0.597591 -0.232512 -0.275171
-0.803624 0.111208 -0.292923
-0.621900 -0.150211 -0.009671
0.571542 -0.031252 0.372982
-0.350855 0.034368 -0.500000
-0.563010 -0.119572 0.088802
0.636064 -0.125407 0.058389
-0.596283 -0.016347 0.444637
0.655133 -0.024668 0.278229
0.688819 -0.173887 -0.161246
0.626751 -0.022449 -0.500000
-0.415677 -0.061201 -0.126374
-0.592566 -0.005275 0.482227
-0.600186 -0.003873 0.473792
-0.744612 -0.081365 -0.072541
0.500965 0.042747 0.160702
0.659572 -0.102583 0.092985
0.655948 -0.215624 -0.500000
0.383308 0.023258 -0.500000
-0.638049 -0.227929 -0.500000
0.636317 -0.173141 -0.500000
-0.735027 -0.235685 -0.416647
-0.878359 -0.060270 -0.471060
-0.396200 0.184093 -0.399110
-0.431410 0.082719 -0.106126
0.621585 0.013492 0.395670
-0.351418 -0.093235 -0.500000
0.431410 0.206684 -0.500000
0.573201 0.026334 0.389486
0.696961 -0.043420 -0.500000
-0.593154 0.002829 0.490549
-0.745212 -0.001936 -0.006269
-0.595135 -0.103327 0.155525
0.512961 -0.005857 0.231348
-0.319554 0.024488 -0.416275
0.593597 -0.053189 0.322702
-0.668384 0.082110 0.129217
0.596028 -0.014291 0.451531
0.550269 -0.110111 0.105879
-0.514225 -0.035556 0.210865
-0.604554 0.042652 0.352999
-0.465479 -0.031184 -0.500000
0.820602 -0.071490 -0.294125
0.847335 0.125657 -0.444583
0.591762 -0.002002 0.491496
-0.555237 -0.276786 -0.431322
-0.454950 -0.149823 -0.179865
-0.545102 -0.135972 0.019080
0.339703 0.079112 -0.385639
-0.374151 -0.164330 -0.500000
-0.576579 0.006325 0.440271
-0.589798 0.254081 -0.500000
-0.583460 0.069495 0.266020
-0.616014 0.098472 -0.500000
-0.374239 0.082306 -0.280180
0.537937 -0.038271 0.275537
-0.566058 -0.035551 0.350618
0.736399 -0.002396 0.023082
-0.412817 -0.080538 -0.158925
0.495747 -0.041994 0.145840
0.398954 -0.200822 -0.431646
0.699617 -0.067874 -0.500000
0.687106 -0.041114 0.158730
0.681099 0.047333 0.167643
-0.566997 -0.112283 0.115558
-0.608590 -0.137732 0.038090
-0.472525 -0.257073 -0.446829
0.654528 -0.270268 -0.423689
-0.783522 -0.082265 -0.500000
0.453910 -0.117162 -0.107075
-0.781384 -0.208107 -0.434925
-0.431353 0.033990 -0.051727
-0.391623 -0.089438 -0.235529
-0.412307 0.016139 -0.105849
-0.746894 -0.182173 -0.294179
0.631590 -0.092767 -0.500000
-0.823200 0.145414 -0.406638
-0.862679 0.127282 -0.492988
-0.633417 -0.049366 0.288053
0.596042 0.090172 0.199294
0.571106 -0.259288 -0.500000
-0.650865 -0.009174 0.305838
-0.384875 -0.055457 -0.219062
0.588225 0.122064 -0.500000
0.581317 0.018369 0.426814
0.598772 -0.002005 0.480712
0.812088 -0.076666 -0.272636
-0.774418 0.026388 -0.109956
0.580857 0.208217 -0.500000
-0.557175 -0.113256 0.103696
0.527482 -0.011081 0.277377
-0.589682 0.202879 -0.500000
-0.735862 0.205684 -0.334117
-0.615511 -0.028927 0.378519
0.445918 -0.185630 -0.290169
-0.596892 0.002602 0.485331
0.788085 0.029873 -0.156732
0.604297 0.015832 0.435828
-0.618036 -0.067552 0.260255
-0.672298 0.034199 0.213192
-0.609294 -0.003507 0.445563
0.625999 -0.106256 0.129463
-0.427401 -0.070908 -0.500000
0.831260 -0.018862 -0.295543
-0.593182 -0.000006 0.499461
-0.623550 -0.021773 0.375882
-0.515485 0.083605 -0.500000
-0.689845 -0.133385 -0.048779
0.519864 -0.199684 -0.209249
0.756090 -0.158718 -0.500000
-0.615086 0.047456 0.326002
-0.730086 0.171674 -0.500000
-0.568807 0.030918 0.368429
0.620774 -0.179864 -0.500000
0.808545 -0.135155 -0.347076
0.711645 0.137393 -0.500000
0.585330 -0.009155 0.459443
0.706022 -0.148093 -0.500000
0.589185 -0.001276 0.485499
0.669265 -0.132065 -0.007775
-0.466233 0.110516 -0.500000
0.435572 -0.199321 -0.347353
-0.612763 0.000297 0.435261
0.766932 -0.072798 -0.127449
-0.768481 -0.089159 -0.155088
-0.504976 0.043438 0.171776
0.395631 -0.010487 -0.159968
0.391973 -0.069081 -0.209634
0.572245 0.001579 -0.500000
-0.544615 -0.172366 -0.097071
0.524384 0.102794 0.087392
-0.591665 0.279368 -0.431244
0.457609 0.075643 -0.017965
-0.638507 -0.157353 -0.500000
-0.652759 -0.086942 0.148983
0.811261 0.077079 -0.500000
0.565829 0.298627 -0.499640
-0.615634 0.288988 -0.466154
-0.602743 0.092164 0.191193
-0.452956 0.198183 -0.309563
0.334527 -0.148036 -0.493872
0.459329 0.110042 -0.500000
0.372143 0.017665 -0.239682
-0.566992 -0.054292 0.298836
-0.596012 -0.175225 -0.084151
-0.568403 -0.200599 -0.173813
-0.617770 0.024033 0.385776
0.775218 -0.097705 -0.188191
-0.541391 0.228429 -0.280875
0.512952 0.267806 -0.432040
0.755304 -0.120886 -0.173668
-0.620568 0.178192 -0.500000
-0.694412 -0.012492 0.160542
-0.508662 0.180413 -0.164326
0.459584 0.076020 -0.500000
-0.751713 -0.066237 -0.072211
0.594885 -0.014369 0.451830
-0.567724 -0.286426 -0.500000
-0.631973 -0.157435 -0.040349
-0.568273 -0.236249 -0.500000
0.536032 0.228454 -0.285112
-0.767194 0.098191 -0.500000
-0.510767 -0.213424 -0.500000
0.561434 -0.005309 0.392171
-0.815869 -0.096961 -0.500000
0.616238 -0.066370 0.265974
-0.466359 0.238167 -0.399683
-0.395075 -0.206045 -0.453153
-0.721969 -0.139175 -0.131700
0.841219 0.071945 -0.360349
0.525400 0.212891 -0.500000
-0.583216 0.130630 -0.500000
0.848260 -0.071784 -0.500000
0.523903 -0.111465 0.062248
0.855285 -0.077600 -0.500000
0.653033 0.158044 -0.063134
-0.574848 -0.020168 0.408784
0.478036 0.006141 0.115098
0.588182 0.028152 0.404595
0.586486 -0.140098 -0.500000
0.688346 0.032015 -0.500000
0.396689 0.225215 -0.496632
0.436947 -0.038940 -0.037239
-0.535152 0.034145 0.275100
-0.573642 0.274451 -0.500000
-0.687012 -0.122510 -0.014052
-0.602765 0.098830 0.169073
0.583204 -0.093006 0.188144
0.470812 0.214305 -0.500000
0.645420 -0.144016 -0.010473
0.483925 0.042500 -0.500000
0.715803 -0.271794 -0.493694
-0.632376 0.079577 -0.500000
0.763241 0.230260 -0.453852
0.725000 0.095971 -0.043075
-0.715194 -0.156858 -0.162084
0.653970 0.085941 0.149423
-0.614259 0.259645 -0.500000
0.507961 0.215728 -0.500000
0.862396 -0.032086 -0.500000
0.737794 0.017939 0.014801
0.452352 -0.035934 0.015004
-0.742466 -0.104843 -0.107633
-0.877474 -0.048740 -0.460935
0.798517 -0.005883 -0.500000
-0.789205 0.126619 -0.500000
-0.593427 0.000126 0.499494
0.629866 -0.101027 0.141914
0.575888 0.014774 0.423771
0.563169 -0.066501 0.256579
-0.852693 -0.094852 -0.420499
-0.610313 -0.184935 -0.119040
-0.696406 -0.176262 -0.180604
-0.620303 -0.058237 0.286086
-0.555885 -0.098316 -0.500000
-0.711547 -0.151863 -0.141476
-0.631870 -0.292195 -0.500000
0.321769 0.026782 -0.500000
-0.457816 0.119662 -0.102650
-0.605454 -0.014442 0.437175
-0.593587 -0.111645 0.127847
0.585081 -0.003546 0.470029
0.595106 -0.000179 0.494096
-0.704513 -0.232232 -0.358230
0.416545 0.236793 -0.485047
0.862059 -0.102282 -0.500000
0.346551 -0.108790 -0.500000
0.690642 0.065248 0.109498
-0.592299 0.003093 0.489118
0.555582 0.039847 -0.500000
-0.607325 -0.052266 0.319653
-0.666063 -0.139159 -0.023379
0.509027 0.179690 -0.161629
-0.383281 0.054824 -0.500000
0.533450 0.153782 -0.050112
-0.532131 0.206266 -0.217192
0.608429 -0.004761 0.447271
0.530016 0.096395 0.115546
0.467064 0.184320 -0.244764
-0.339288 -0.156857 -0.500000
0.582972 -0.063502 0.285523
0.625797 0.059923 -0.500000
0.327602 0.092992 -0.438474
-0.588574 -0.001668 0.483158
0.800660 0.148269 -0.349600
-0.747660 -0.153715 -0.500000
-0.531709 -0.092144 -0.500000
0.784394 0.038876 -0.500000
-0.775814 -0.093743 -0.500000
-0.426886 0.094344 -0.137783
-0.577758 -0.220263 -0.236045
-0.588387 -0.004936 0.476682
0.576635 0.053447 0.313341
0.778631 0.034174 -0.128041
0.831492 0.050860 -0.311728
0.693871 0.235322 -0.500000
-0.534282 -0.090971 0.138462
-0.590823 0.024752 0.417067
-0.624735 0.241514 -0.500000
-0.882351 -0.012996 -0.500000
-0.566770 -0.091269 0.183137
0.603491 -0.129441 0.067207
0.554945 0.258212 -0.370172
0.496456 -0.269763 -0.455448
-0.532407 -0.247455 -0.500000
-0.500168 -0.126404 -0.500000
0.829874 0.003188 -0.288505
0.793451 -0.118313 -0.274890
0.611503 -0.163724 -0.500000
0.630738 0.050855 -0.500000
-0.629657 0.006543 0.377006
0.442485 -0.076391 -0.063656
-0.582818 0.002572 0.463880
0.573854 0.038537 -0.500000
0.653545 0.133716 0.011191
-0.320725 0.021910 -0.411660
-0.467514 0.054817 -0.500000
0.779213 0.010026 -0.120466
-0.492288 -0.200308 -0.247853
-0.649170 0.034010 0.282101
0.626521 -0.070022 0.241719
0.482075 0.205276 -0.278308
-0.691986 0.062367 -0.500000
-0.606030 0.200567 -0.500000
-0.566791 0.009262 0.406262
0.359249 -0.029749 -0.500000
0.659156 -0.240566 -0.500000
0.859163 0.110698 -0.459826
-0.653055 -0.142671 -0.015541
-0.685248 0.240578 -0.500000
0.581016 -0.039069 0.363442
-0.752342 0.166857 -0.500000
-0.656121 0.078575 0.164754
0.346971 -0.111824 -0.500000
-0.673750 -0.187826 -0.181044
0.595388 0.042518 0.358110
-0.871473 0.020598 -0.429637
0.383535 0.012423 -0.500000
-0.766570 0.012638 -0.500000
0.583914 -0.059026 0.300752
0.648254 0.179093 -0.124405
0.560135 0.177967 -0.500000
0.541568 0.075643 -0.500000
0.713137 0.145754 -0.128886
0.790491 0.044612 -0.173774
-0.628563 0.009248 0.378621
-0.642452 -0.292855 -0.489814
0.462154 -0.041309 -0.500000
-0.352118 -0.155128 -0.500000
0.564850 0.087185 0.194256
-0.603685 -0.010370 0.451182
-0.599784 0.037084 0.374535
-0.681869 0.252839 -0.392961
0.545357 0.145899 -0.011959
0.591278 0.142574 0.024705
0.630603 0.035813 0.327732
-0.472807 -0.181979 -0.500000
0.601253 0.085802 0.212781
-0.861787 -0.114882 -0.473308
-0.544464 0.079884 0.187827
-0.556835 0.220838 -0.500000
-0.723868 0.262303 -0.476614
-0.724949 0.260850 -0.500000
0.614574 0.169248 -0.068581
-0.637871 0.243598 -0.325448
0.481522 0.124418 -0.057613
0.668192 0.185755 -0.167559
0.581852 -0.014070 0.439445
-0.441863 -0.249578 -0.500000
-0.483122 -0.072528 0.060187
-0.526625 -0.075369 0.164475
0.542461 0.168534 -0.500000
0.706285 0.028214 0.111958
0.732768 -0.093253 -0.059120
0.582710 -0.051661 0.324188
-0.633586 -0.167096 -0.072912
0.617064 0.013647 0.408780
0.886315 -0.039776 -0.500000
0.459333 0.124730 -0.500000
-0.589274 0.009477 0.465621
-0.735393 -0.249762 -0.500000
0.715296 -0.107650 -0.042227
-0.534123 -0.120333 0.052948
0.759579 0.009422 -0.055009
0.511427 0.026214 0.213303
-0.680259 -0.187449 -0.188732
0.434208 0.051360 -0.057393
0.618116 0.060154 0.283150
-0.602272 0.243963 -0.313754
-0.561506 -0.180785 -0.500000
-0.714399 -0.244997 -0.500000
-0.416433 -0.066764 -0.130298
0.734127 0.101866 -0.079241
-0.441528 0.022889 -0.500000
0.505630 -0.251033 -0.500000
-0.409054 -0.203060 -0.414063
0.678304 -0.055505 -0.500000
-0.719759 0.160624 -0.181346
-0.448105 0.026197 0.008058
0.534082 -0.160119 -0.500000
0.414433 -0.052362 -0.121385
-0.477272 0.088164 0.014140
-0.477515 -0.084253 0.022565
0.588094 0.024542 0.416344
0.834788 0.087794 -0.356370
-0.722906 -0.076947 -0.500000
0.623127 0.017685 0.384539
0.463307 0.143901 -0.146504
-0.576301 -0.009036 0.435700
-0.658338 -0.053568 0.219251
0.387157 -0.120519 -0.296086
-0.574438 -0.106125 -0.500000
0.611268 0.010076 0.431460
0.681841 -0.078447 0.105795
0.657688 0.043829 0.240488
-0.729935 -0.157324 -0.500000
-0.505327 0.216783 -0.279898
-0.589164 -0.277882 -0.426378
-0.592011 0.106488 0.145013
-0.798997 0.181379 -0.414036
-0.585528 -0.229945 -0.266924
0.447101 0.095498 -0.082206
-0.466445 -0.198386 -0.500000
-0.558268 -0.029430 0.347377
0.592752 -0.000817 0.496636
0.351994 0.060330 -0.329251
-0.597696 0.002751 0.482838
0.838507 -0.055728 -0.338058
-0.579196 -0.298029 -0.494549
0.442573 0.025457 -0.009681
0.381881 0.029961 -0.211916
0.592003 -0.151167 -0.500000
0.420887 -0.006775 -0.075300
0.654981 -0.195068 -0.500000
0.724523 0.060249 0.018820
-0.470231 0.019119 0.084706
0.552705 0.193173 -0.500000
0.763328 -0.084276 -0.500000
0.569233 0.036647 0.353778
-0.796079 0.140495 -0.322195
0.405479 0.170266 -0.345140
-0.797852 0.007999 -0.182216
-0.346088 -0.127177 -0.500000
-0.496670 0.064258 -0.500000
-0.695320 -0.173473 -0.170756
0.556559 -0.277088 -0.500000
0.703777 0.047722 0.098989
0.863566 0.033089 -0.407470
-0.624654 0.072780 0.235903
-0.595550 -0.059804 0.300518
-0.310950 0.087516 -0.485477
0.504371 0.181952 -0.175136
-0.635498 -0.069071 0.230273
-0.583316 -0.030463 0.393097
-0.540345 -0.252725 -0.500000
-0.436441 0.008222 -0.023727
0.436787 -0.093943 -0.108599
0.586974 0.002660 -0.500000
-0.587983 0.041267 0.361288
-0.463631 0.212080 -0.500000
-0.754810 0.121805 -0.174190
-0.788978 -0.059197 -0.500000
0.446954 -0.099957 -0.090869
0.506742 -0.129896 -0.020393
-0.637723 -0.003304 0.351659
0.594425 -0.009103 0.469445
0.332856 -0.090127 -0.418796
0.424477 0.189262 -0.500000
0.542642 0.223692 -0.500000
0.356340 0.118672 -0.383514
-0.430422 -0.113814 -0.162463
-0.395840 -0.132635 -0.500000
-0.570055 0.045018 0.331049
-0.807606 0.083481 -0.500000
-0.803339 0.043645 -0.214944
0.570716 0.024460 0.388930
-0.586631 -0.071546 0.260467
-0.743946 -0.038872 -0.500000
0.691045 -0.136065 -0.058363
0.758359 -0.070749 -0.500000
0.742562 0.004104 0.002418
-0.553750 0.045798 0.298200
-0.570201 -0.051906 0.310563
-0.559685 0.043106 0.317699
-0.570922 -0.078155 0.228975
0.797103 -0.011541 -0.500000
0.691806 -0.037486 0.148811
-0.570946 0.116492 0.104580
-0.493835 -0.120010 -0.019662
-0.414495 -0.062448 -0.131457
0.469393 -0.001675 0.086793
-0.565393 -0.200447 -0.500000
0.814145 -0.193418 -0.500000
-0.388398 0.022068 -0.500000
-0.594492 -0.070226 0.265883
-0.560808 0.009917 0.386622
0.411260 0.040184 -0.121550
-0.564267 -0.035306 0.347541
0.479524 -0.104171 -0.014312
-0.837075 0.106834 -0.500000
-0.553274 -0.134660 0.031684
0.593198 0.012660 0.457797
-0.499263 -0.217405 -0.500000
-0.626115 0.009158 0.386577
-0.876059 -0.089673 -0.488654
0.822987 -0.090901 -0.500000
0.410932 -0.050493 -0.500000
-0.348511 -0.119888 -0.408699
0.440241 -0.149781 -0.213946
-0.594389 0.250492 -0.500000
-0.459476 0.061168 0.009398
-0.559566 0.119726 0.085335
0.795792 -0.150415 -0.340700
0.678328 0.117399 0.016898
-0.543164 -0.071427 0.209029
0.700394 -0.046769 0.110596
-0.685071 0.181308 -0.177304
-0.451662 -0.235550 -0.500000
-0.689206 -0.075496 0.093263
0.411001 0.039416 -0.500000
0.762424 0.098161 -0.151697
-0.736141 -0.101888 -0.084733
-0.667076 -0.244743 -0.352028
0.687790 0.127521 -0.500000
0.571987 -0.007232 0.424841
0.686864 -0.130653 -0.035583
0.662204 0.180689 -0.500000
0.632538 0.064123 0.249490
0.438843 0.020732 -0.019619
0.653919 0.071012 0.188871
-0.661775 -0.001561 0.271837
-0.588456 0.001691 0.482761
-0.658782 0.159568 -0.074881
0.566552 -0.275101 -0.500000
-0.564889 0.094038 0.172504
-0.573000 -0.235387 -0.287548
0.597419 0.117503 0.108087
0.367944 -0.132110 -0.500000
-0.459955 -0.077550 -0.014311
0.669179 -0.042549 0.210147
0.656138 0.064130 -0.500000
0.745773 0.077004 -0.069252
0.548724 0.016478 0.341451
-0.603108 0.034235 -0.500000
-0.464440 -0.225766 -0.366580
0.603722 0.220760 -0.500000
0.644016 0.060246 0.237590
0.508949 -0.245801 -0.366287
0.442614 -0.241939 -0.450168
-0.652609 0.165277 -0.085273
0.615605 -0.085207 0.206443
0.593829 -0.053000 0.323326
-0.543050 -0.048552 0.266982
0.594033 -0.000003 0.497701
0.596270 0.004906 0.480958
0.666181 -0.135777 -0.013600
0.761268 0.189684 -0.344449
0.633013 -0.173971 -0.500000
-0.324319 -0.026515 -0.401093
0.612845 -0.270695 -0.404655
0.676622 0.084108 0.105461
-0.804756 0.002351 -0.204751
0.414598 -0.158545 -0.500000
0.512277 -0.146923 -0.059347
-0.774395 0.176083 -0.341855
-0.476688 0.048806 -0.500000
-0.628364 0.164220 -0.500000
0.675616 0.070583 0.138666
0.719855 0.259364 -0.461911
-0.397646 0.029025 -0.500000
-0.724492 0.015558 0.059773
0.387518 -0.002397 -0.500000
-0.624290 0.080092 0.213790
-0.532637 -0.290490 -0.489219
-0.765047 -0.020477 -0.076401
-0.498681 -0.223080 -0.307782
0.570812 -0.261263 -0.500000
-0.605921 -0.019413 0.422897
0.625842 0.030972 0.350354
0.704901 0.097753 -0.500000
-0.605889 0.125596 0.079264
-0.878611 0.050195 -0.465499
0.560484 -0.105887 0.130439
-0.715895 0.041497 0.068711
0.571178 -0.008155 0.421271
-0.805233 -0.178789 -0.424138
0.658892 -0.155812 -0.063461
-0.805318 0.073983 -0.248379
-0.325058 0.067160 -0.500000
0.387962 -0.190371 -0.500000
0.601958 -0.198650 -0.500000
0.766181 -0.083886 -0.140397
0.493808 -0.205273 -0.260441
-0.779451 0.061329 -0.153174
-0.762133 -0.195176 -0.500000
-0.543675 0.065351 0.226388
0.384632 0.155872 -0.368311
-0.756768 0.245945 -0.500000
-0.889840 -0.013899 -0.489405
-0.713640 -0.079195 0.019919
0.533673 0.031769 0.274664
0.660022 -0.271452 -0.431737
0.806623 0.123546 -0.321595
-0.424797 0.140348 -0.500000
0.631253 -0.091084 0.171138
-0.800446 -0.079935 -0.239979
0.770183 -0.147117 -0.500000
-0.435097 -0.208116 -0.500000
0.656960 0.027988 0.268332
0.712726 -0.173355 -0.500000
-0.653914 -0.026589 0.279502
0.828840 0.085801 -0.335464
0.556045 -0.032268 0.335603
0.670147 -0.027763 0.227777
-0.552916 0.165490 -0.067856
-0.510538 0.058427 0.162189
0.595193 -0.014551 0.451105
-0.556663 -0.193150 -0.155342
0.594277 -0.005211 0.482354
0.600928 0.160438 -0.035391
0.406563 -0.068812 -0.163510
-0.578422 0.215765 -0.500000
-0.554778 0.039280 0.316508
-0.678258 -0.097993 0.067782
-0.654788 0.148034 -0.034266
-0.384839 0.203065 -0.470164
-0.436658 0.223075 -0.408678
0.583071 -0.032965 0.384904
0.457220 -0.160020 -0.200286
0.745775 0.016519 -0.500000
-0.626111 -0.087121 -0.500000
0.637285 -0.273619 -0.500000
-0.600463 -0.005941 0.469090
-0.569233 -0.079248 0.223886
-0.532141 -0.040359 0.255628
-0.534527 0.289668 -0.485264
-0.563194 -0.027517 0.363937
-0.381524 0.169319 -0.500000
0.514827 0.171417 -0.500000
0.610116 0.185078 -0.500000
0.785199 -0.194245 -0.500000
0.607787 -0.098163 0.169267
0.536904 0.221424 -0.500000
0.537850 0.177828 -0.500000
-0.587407 -0.044478 0.350425
-0.597451 -0.019777 0.432668
-0.460276 0.141758 -0.148093
0.731481 0.109544 -0.087668
-0.591007 0.272573 -0.500000
-0.605801 -0.070005 0.262983
-0.704042 -0.267014 -0.463504
-0.500208 -0.043280 0.157666
0.307093 -0.087598 -0.497848
-0.703387 0.075501 0.055154
0.462460 -0.029237 0.052970
-0.705206 -0.151270 -0.500000
0.730078 -0.055812 -0.500000
0.370542 -0.097571 -0.310763
-0.579576 0.115023 0.113855
-0.618576 0.036480 0.352147
0.384258 0.093848 -0.263938
0.760427 0.048779 -0.080192
-0.599547 -0.020315 0.429198
-0.634810 -0.107485 0.115977
-0.571480 0.122336 0.085752
-0.619144 0.100174 0.155188
-0.685649 -0.049319 -0.500000
-0.707712 0.108048 -0.024452
0.702229 -0.203055 -0.268023
-0.875999 0.078733 -0.478053
-0.470384 -0.063647 0.038481
-0.519241 -0.113314 0.048690
-0.579525 0.084795 0.213621
-0.612432 0.274111 -0.415916
0.609219 0.005216 0.444298
-0.408595 -0.031447 -0.124687
-0.617132 -0.000497 0.420690
-0.811834 0.160153 -0.500000
-0.597681 -0.000977 0.485180
-0.578054 0.020611 0.414456
0.770736 0.039353 -0.500000
-0.617466 -0.284354 -0.500000
-0.633017 0.000180 0.367755
0.783077 0.044325 -0.149473
0.496925 0.126985 -0.031472
-0.461914 0.157953 -0.500000
-0.452048 -0.151137 -0.189661
0.569382 -0.297505 -0.494896
-0.428817 -0.033639 -0.059766
0.637061 0.289303 -0.475292
0.634050 0.004144 0.363611
-0.593319 -0.000039 0.499847
0.644459 -0.053866 0.252473
-0.545661 0.028391 0.315016
0.566394 -0.061290 0.276822
-0.471147 -0.019907 0.087308
-0.593101 0.001474 0.495019
-0.734861 0.172608 -0.244018
0.538042 -0.128914 -0.500000
-0.619099 -0.020791 0.389668
-0.518249 -0.249594 -0.368819
0.405816 -0.094337 -0.199730
-0.603552 -0.120886 0.095611
-0.555307 0.183420 -0.124407
0.600964 -0.059414 0.300330
0.563270 -0.024525 0.370648
-0.393922 -0.133594 -0.500000
-0.858209 0.037909 -0.391883
0.513775 0.194349 -0.200023
-0.536394 0.213996 -0.238146
0.689343 -0.207535 -0.262211
-0.381197 -0.098951 -0.280296
-0.657977 0.247313 -0.500000
-0.763445 -0.065519 -0.500000
0.679853 -0.134712 -0.033658
0.375038 0.077664 -0.272364
-0.641116 0.030507 0.311058
0.334633 -0.024321 -0.366171
0.785174 -0.211410 -0.451567
0.791535 -0.038047 -0.500000
-0.615300 0.003546 0.425862
0.599357 -0.103766 -0.500000
-0.833378 -0.174237 -0.488687
0.785520 0.146840 -0.306184
-0.343918 -0.078128 -0.500000
0.813901 0.095098 -0.300618
-0.705903 -0.199234 -0.262772
0.625337 -0.035640 0.340354
-0.527574 -0.024099 0.266514
-0.595499 0.036202 0.379112
-0.329317 -0.068732 -0.500000
-0.585549 0.175183 -0.084521
0.845716 0.137370 -0.457789
-0.594100 -0.181384 -0.104619
0.473218 0.130248 -0.090620
0.461765 0.063452 0.013070
0.414976 0.172687 -0.327551
-0.703841 -0.260998 -0.444751
0.656738 -0.068060 0.189963
-0.547266 0.170678 -0.089294
-0.621441 -0.159478 -0.039781
-0.556315 0.116984 0.090985
0.833888 0.076267 -0.500000
0.819829 -0.121300 -0.356409
-0.641382 0.158901 -0.053345
-0.581639 -0.018827 0.426104
-0.595586 -0.175224 -0.084127
-0.346258 0.012641 -0.500000
0.571687 0.101101 0.155352
0.595218 0.285716 -0.452407
0.684256 -0.078229 0.100212
0.624559 -0.002415 0.395639
-0.734248 0.006363 0.029841
-0.296642 0.002120 -0.489031
0.544058 -0.278216 -0.441827
0.609283 0.022424 0.408294
0.594220 -0.003413 0.488256
0.434848 -0.062807 -0.500000
-0.748683 0.118095 -0.150442
-0.565338 0.002079 0.406391
0.565065 0.043599 0.326776
-0.650815 -0.221470 -0.262684
0.805871 -0.094205 -0.274903
0.658355 0.023633 0.269421
-0.628305 -0.023695 0.359217
0.789638 0.173624 -0.373543
0.580545 0.263052 -0.377878
0.458952 -0.055618 0.015182
0.592668 -0.022395 0.425317
-0.573789 0.087989 0.199546
-0.664139 -0.172042 -0.500000
-0.697695 -0.115748 -0.019475
0.500346 0.095499 0.055670
0.887151 -0.023272 -0.500000
0.644798 0.181943 -0.130263
0.383175 -0.006905 -0.200940
0.831525 0.174725 -0.484655
-0.693763 -0.126861 -0.500000
-0.679341 0.074058 0.121697
-0.559131 0.075358 0.224132
0.445575 -0.234485 -0.423873
-0.394445 -0.178475 -0.390780
-0.570041 0.017321 0.403216
0.583577 -0.003567 0.465340
-0.715959 0.228663 -0.500000
-0.809996 -0.012822 -0.500000
0.767554 0.229778 -0.461177
0.318932 -0.116997 -0.494375
0.693211 -0.272369 -0.500000
-0.383604 0.005913 -0.500000
0.591791 0.001095 0.493667
-0.650720 0.256072 -0.500000
0.590858 0.001197 0.490805
0.568878 -0.031532 0.366966
0.843962 0.085712 -0.500000
0.647666 0.024768 0.300992
-0.387612 0.043432 -0.200887
-0.451586 0.128241 -0.137188
-0.585563 0.039009 0.367409
0.619556 -0.071521 0.246089
-0.790282 0.160344 -0.500000
-0.794292 0.207092 -0.461869
0.776862 0.180205 -0.500000
-0.638415 -0.089975 0.164557
0.545141 0.005172 0.338404
0.803211 -0.055252 -0.223396
-0.534328 -0.062370 0.213782
0.663250 0.150701 -0.053752
-0.551397 -0.106392 0.118790
-0.585059 -0.193867 -0.146813
0.604793 0.129946 0.065167
-0.771171 -0.072330 -0.139914
-0.385858 0.065651 -0.225413
0.474419 -0.256973 -0.443858
0.516081 0.061541 0.170744
-0.576787 0.284849 -0.451098
0.534105 0.085602 0.152999
-0.372447 0.157356 -0.404041
-0.864702 0.003122 -0.404589
-0.514025 0.090705 0.098352
-0.675703 0.072954 0.133252
0.608836 -0.062694 0.284733
0.524194 -0.154531 -0.064325
-0.399882 0.136863 -0.289929
0.701330 0.276982 -0.490959
-0.583151 0.176629 -0.089742
-0.644398 -0.138784 0.007076
-0.669994 0.049535 0.195790
-0.492448 -0.041157 0.136777
0.844191 -0.131416 -0.500000
0.341412 0.152732 -0.482043
0.457597 0.144018 -0.159699
0.706622 -0.167625 -0.174375
-0.542259 -0.206852 -0.210224
0.661599 0.151523 -0.053955
-0.310641 -0.077961 -0.500000
0.664318 -0.036240 0.234361
0.622147 0.007611 0.400692
-0.702144 0.262480 -0.447120
-0.430821 0.232881 -0.446614
0.541759 -0.018968 0.316796
0.591773 0.003240 0.487999
0.708538 -0.150784 -0.132504
0.642969 -0.060971 -0.500000
-0.558248 0.077997 0.214901
-0.603979 -0.226649 -0.256329
-0.487060 -0.097887 0.018357
-0.639028 0.269324 -0.500000
-0.535617 0.293818 -0.498116
-0.319424 0.057367 -0.432874
-0.559707 -0.008233 0.384570
0.405322 -0.186088 -0.500000
0.652814 0.168846 -0.096712
-0.415110 -0.055285 -0.122036
0.590676 0.015857 0.446402
0.643663 -0.009331 0.329410
-0.508068 0.133513 -0.028074
-0.617108 0.182224 -0.112555
-0.637703 -0.115179 0.088580
-0.592552 0.018048 0.439782
0.703803 -0.175866 -0.192261
-0.646574 0.162939 -0.071377
0.638130 0.033492 0.313586
0.366008 0.054699 -0.279410
-0.439094 0.127882 -0.167890
0.524455 0.196223 -0.193213
-0.620589 -0.007821 0.405516
0.585394 -0.035986 0.377155
0.353593 0.012104 -0.300187
0.597915 -0.024536 0.416805
-0.326044 -0.112053 -0.466121
-0.709502 -0.204179 -0.283027
-0.412969 0.037143 -0.113864
0.703246 -0.132394 -0.073553
-0.712669 -0.249528 -0.500000
-0.602900 0.032430 0.387302
0.593392 0.002186 0.492710
-0.610441 -0.163240 -0.047111
-0.427780 -0.153948 -0.253595
-0.635711 -0.197251 -0.172500
-0.789748 -0.110749 -0.500000
-0.729956 -0.266803 -0.499147
0.592476 -0.004911 0.483378
0.577403 -0.037774 0.363333
0.769838 -0.155713 -0.284552
0.695851 -0.081061 0.064382
0.553600 0.247001 -0.333928
0.553735 -0.130815 0.044400
-0.868722 -0.050091 -0.500000
-0.802594 -0.006106 -0.197799
0.633727 0.254999 -0.360591
-0.384456 -0.194396 -0.451162
-0.515804 0.166144 -0.111159
-0.716362 -0.040107 -0.500000
-0.476068 0.252985 -0.429486
-0.574045 -0.028733 0.384623
0.746520 0.003703 -0.010738
0.400866 -0.006797 -0.141992
-0.602152 -0.293531 -0.478878
0.527988 -0.142986 -0.500000
0.792984 -0.057849 -0.192844
0.623871 -0.229832 -0.272834
0.637257 0.029402 0.323842
0.472766 0.201948 -0.284020
-0.563238 -0.092760 0.174921
-0.670618 0.061277 0.171261
-0.661522 0.087662 0.129822
0.607006 0.065084 0.278326
-0.301231 -0.059094 -0.500000
-0.560861 0.063760 0.261476
-0.579782 0.247017 -0.324630
0.659611 -0.027005 0.261472
-0.647559 0.043189 0.268950
-0.533425 0.099024 0.114197
0.579321 -0.190384 -0.136334
0.649960 -0.066700 0.208370
-0.498963 -0.047254 0.148170
-0.447318 -0.095944 -0.082415
0.678076 0.247724 -0.372716
-0.707334 0.154817 -0.500000
0.480865 0.187870 -0.229890
-0.410049 0.087136 -0.500000
