ply
format ascii 1.0
element vertex 1683
property float x
property float y
property float z
end_header
-0.364994 0.419851 -0.016525
0.124497 0.306215 -0.568507
-0.302771 -0.092295 0.156922
0.312204 0.150301 -0.276290
-0.527891 0.347467 0.091762
-0.050682 0.034270 -0.516603
-0.406470 0.188104 -0.158677
-0.067928 0.384741 -0.346963
-0.611466 -0.147478 -0.149319
-0.694371 -0.144150 -0.129859
-0.654087 -0.013639 0.060388
-0.415172 -0.267966 -0.005249
-0.120952 0.380133 0.347655
-0.015631 0.625918 0.036726
0.360518 0.294114 -0.211065
-0.019884 -0.093586 -0.332657
-0.238477 0.103653 0.247354
-0.451755 -0.188906 -0.115921
0.074776 0.583292 0.084026
0.075920 0.299324 0.082886
0.002240 -0.165520 -0.230007
-0.359406 -0.289040 0.016199
-0.225247 -0.149414 -0.214044
-0.495259 0.091895 -0.144809
0.105907 0.229705 -0.633369
-0.497063 0.350911 0.464035
-0.454193 0.153933 -0.137268
-0.624847 0.422588 0.250261
-0.280773 0.059288 -0.389164
-0.261466 0.471068 0.309058
-0.584850 0.394597 0.365075
0.049999 0.354088 -0.491437
-0.143147 0.043505 0.102424
-0.423311 -0.000329 0.352839
-0.607839 -0.198202 0.029816
-0.340013 -0.030040 -0.370734
-0.248440 0.453236 -0.108651
0.009347 0.527262 0.178450
-0.059222 -0.130749 -0.121680
-0.527371 0.314732 0.065186
-0.484550 -0.330094 0.098896
-0.640266 -0.014695 0.078947
-0.216291 0.507313 -0.098362
0.190709 0.057565 -0.226356
0.266853 0.193299 -0.429575
-0.178023 0.293847 -0.307171
0.288502 0.595915 0.027929
-0.622463 -0.124623 0.047275
-0.226918 -0.127810 0.051424
0.341583 0.054963 -0.397116
-0.660589 0.380425 0.253146
-0.232870 0.457840 0.323643
-0.612510 0.498039 0.297730
-0.037118 -0.169632 -0.175125
-0.114097 0.593347 -0.133975
0.240165 0.605104 -0.255632
0.333707 -0.007698 -0.423896
-0.257926 -0.130409 -0.236469
-0.191929 -0.201390 -0.142907
0.124091 0.508077 -0.444366
0.068701 0.660207 -0.028809
-0.441173 -0.274673 0.152751
0.112011 0.065042 -0.140269
-0.592093 -0.126780 0.088143
-0.083960 0.628625 0.044675
-0.556939 -0.051591 0.175221
0.246549 0.678176 -0.209399
-0.153027 0.142518 -0.453027
-0.484606 0.158121 0.382550
-0.215123 0.633859 0.059880
-0.122484 -0.194989 -0.164540
0.285511 0.656654 -0.166571
0.148469 0.385852 -0.494606
-0.583615 -0.211145 0.056668
-0.178835 0.278849 0.326013
-0.207210 -0.004705 -0.431493
-0.338234 -0.182674 -0.145017
-0.703530 -0.079793 -0.069329
0.008086 0.585369 0.092622
0.235131 0.548813 -0.291407
-0.488230 -0.047734 0.272153
0.097095 0.416017 -0.490122
-0.339989 -0.209858 0.101283
-0.183158 0.544953 -0.102154
0.320650 0.012386 -0.394621
-0.043646 0.531126 -0.255220
-0.661386 0.143570 0.065472
0.062434 0.007194 -0.496304
0.284341 0.398730 -0.300233
-0.103443 -0.065072 -0.024394
0.171656 0.084077 -0.185860
0.314418 0.577816 0.050196
-0.158467 0.165134 -0.429494
-0.430613 0.246969 -0.087256
-0.226187 0.629779 0.009153
0.165079 0.175707 -0.579236
-0.148483 -0.000145 -0.448523
-0.433105 0.060157 -0.233353
0.242243 -0.021299 -0.485578
-0.617530 0.395566 0.320407
-0.240283 0.190183 0.318039
-0.499225 -0.225834 0.165778
-0.279620 0.296310 0.442535
0.007726 0.675302 -0.040491
-0.496122 0.081799 0.327561
0.034923 0.429966 -0.415714
-0.429473 0.222913 0.491918
-0.520172 0.143677 0.326002
-0.672698 0.213590 0.150999
0.066883 0.267600 0.066848
-0.487121 0.406251 0.097016
-0.199755 0.485804 -0.132314
-0.090609 0.645802 0.020403
-0.153537 0.428862 0.352670
0.169699 0.540512 -0.386086
-0.126673 0.220388 -0.417908
-0.305984 0.255765 0.437122
0.365093 0.242360 -0.256902
0.181420 0.068314 -0.607637
-0.338337 0.285858 0.494010
-0.642535 0.244717 0.208620
-0.056539 -0.104877 -0.309523
-0.691407 -0.059536 -0.065555
-0.110511 0.241630 -0.417465
-0.655625 0.408139 0.274195
0.183130 0.208506 -0.537497
-0.486387 0.536846 0.251015
0.264432 -0.035100 -0.469025
-0.548565 -0.278953 0.070393
-0.420426 0.557020 0.149057
-0.172887 0.093478 -0.471822
0.317453 0.012467 -0.391300
-0.475268 -0.252202 -0.018074
-0.031517 -0.151885 -0.166708
-0.643861 0.253876 0.135390
-0.282384 -0.134482 -0.226157
-0.142583 0.521194 -0.162375
0.180016 0.369764 -0.459244
-0.151024 0.363556 0.365088
-0.638985 0.404846 0.295506
0.124338 0.273813 -0.585316
0.261610 0.607245 -0.224898
-0.490382 0.158735 0.374883
0.201626 0.112391 -0.561142
0.211527 0.256842 -0.473505
-0.404912 0.504722 0.091649
-0.595312 0.461635 0.251252
0.219281 0.217756 -0.482800
0.391711 0.501360 -0.077938
-0.285668 -0.130489 0.109118
0.246301 0.413220 -0.345388
-0.557586 0.306594 0.089480
-0.207976 0.293390 0.367256
-0.481774 0.036649 0.324276
-0.584702 0.424395 0.210819
0.228309 0.745345 -0.200219
-0.242574 0.549691 0.189323
0.241761 0.083979 -0.520220
0.055838 0.533478 0.161108
-0.348336 -0.026986 -0.373799
-0.528629 0.449949 0.387089
-0.069734 0.166912 0.125853
0.333958 0.163500 -0.352089
-0.055464 0.548807 0.157887
-0.213284 0.502031 0.254775
0.335420 0.333409 -0.263081
-0.388169 -0.133907 0.210774
-0.411590 -0.167373 -0.154839
-0.375384 -0.017820 -0.354171
-0.622412 0.257349 0.116311
-0.593910 -0.127849 -0.181459
0.090793 0.754974 -0.173011
-0.312726 0.197313 0.397482
0.028513 -0.147012 -0.262011
0.226920 0.171555 -0.495895
0.103645 0.761855 -0.185450
0.308374 -0.051289 -0.432782
0.072735 0.052583 -0.110186
-0.072823 -0.097296 -0.317899
-0.088480 0.421686 0.347650
-0.023280 0.304453 0.187982
0.153447 0.467009 -0.446178
-0.254964 0.007412 0.187571
0.044102 0.635781 0.011667
-0.505861 0.309524 0.039139
-0.134433 0.620911 -0.091336
-0.125088 0.009786 0.057206
0.391247 0.566260 -0.066718
-0.507636 -0.090435 -0.251962
-0.150924 -0.228341 -0.110173
-0.293954 0.253961 0.423437
-0.446821 0.222174 -0.090479
-0.224758 -0.101678 -0.284820
0.130631 0.046088 -0.565834
0.046859 0.486157 0.232755
-0.084232 0.588922 0.103517
-0.415440 0.472842 0.077005
-0.155180 0.106997 0.165194
-0.462589 0.031952 0.348386
-0.297956 0.088324 -0.348565
0.252820 0.641981 -0.034043
-0.679697 0.204380 0.132500
-0.215284 0.601969 0.107132
0.228836 0.573729 0.071226
-0.403553 0.440998 0.378454
-0.188443 0.366434 0.405482
-0.460604 0.459163 0.112112
-0.403843 0.129892 -0.207667
-0.099038 0.464271 -0.252008
0.180714 -0.088135 -0.375836
0.062550 0.025299 -0.121523
-0.477877 -0.139246 0.239611
-0.508817 0.263788 0.005761
-0.653651 0.330096 0.206001
-0.491336 0.550067 0.232303
0.005607 0.112078 -0.638784
0.007191 0.618714 -0.237300
-0.058861 0.478476 0.262631
0.313032 0.461712 -0.029364
-0.498824 0.411284 0.112938
-0.120060 0.626512 0.054122
-0.067571 0.369695 0.284992
0.194287 0.760664 -0.199550
-0.234555 0.494366 0.269849
0.143037 0.401887 0.096143
-0.412190 0.420581 0.032115
0.334325 -0.009457 -0.440128
0.277644 0.498102 -0.258615
-0.393953 -0.297814 0.035239
-0.271091 -0.214071 0.027772
-0.318034 0.166921 -0.265585
0.107235 0.690440 -0.080323
-0.252394 -0.147869 0.061406
-0.327680 0.537275 0.222605
-0.511932 -0.165058 0.179332
0.093304 0.645603 -0.303595
-0.451414 0.245493 -0.067249
0.104312 -0.039970 -0.433790
-0.180371 0.041843 -0.505120
-0.286305 0.357668 0.481334
0.020797 0.535499 -0.317364
-0.132812 -0.038067 0.026998
-0.240600 0.416305 -0.146018
0.004024 0.579417 0.102146
-0.383345 -0.083895 0.245654
0.069002 0.529707 -0.371059
0.261317 0.040007 -0.515704
-0.323856 0.368242 -0.099478
0.206550 0.520915 -0.345189
-0.614464 -0.058407 0.092228
-0.124201 0.089974 0.120103
0.200620 0.485670 -0.371429
0.035761 0.377394 -0.458395
-0.601629 -0.077328 0.100281
-0.335017 0.382530 -0.076745
-0.635876 0.146426 0.167502
0.163654 0.036868 -0.557961
0.280071 0.274026 -0.369978
-0.346628 0.187924 -0.219757
0.058298 0.059460 -0.572977
-0.432937 0.105977 -0.197069
-0.160530 0.357002 -0.274736
-0.427592 0.439852 0.063131
-0.159843 0.300082 0.323567
-0.111106 0.215016 -0.438035
0.220518 0.201904 -0.141869
-0.567602 0.155363 -0.020645
-0.201782 0.364391 -0.226850
-0.717069 -0.109539 -0.079208
0.161764 0.464983 -0.435720
0.075523 0.043067 -0.120597
-0.355171 -0.119664 0.188505
-0.376110 -0.037539 0.275169
-0.547764 -0.054733 0.186292
-0.364773 0.587284 0.155041
0.162211 0.720207 -0.304439
-0.594470 0.098212 0.200044
0.146744 0.738537 -0.158463
-0.064835 0.499656 -0.258683
-0.211490 -0.056911 -0.353435
-0.137846 -0.025234 -0.413232
0.076884 0.021318 -0.519748
-0.282761 0.184332 0.356640
0.293591 0.362702 -0.305894
-0.433181 0.252670 -0.080106
-0.552070 -0.007536 0.204504
-0.620366 -0.183036 -0.095106
-0.500924 -0.309353 0.071047
0.208820 0.167729 -0.522869
0.317747 0.597624 0.020280
-0.198289 0.127596 0.225481
0.291529 0.590648 -0.192046
-0.021519 -0.036673 -0.416651
-0.211454 0.611724 -0.020214
-0.680292 -0.071509 -0.086400
0.313283 0.301732 -0.309893
-0.068325 0.180148 0.134950
-0.468059 0.427265 0.094325
-0.138016 0.346032 -0.306391
-0.270087 0.323902 0.454781
0.203803 -0.024087 -0.474722
-0.511217 0.239456 0.387412
-0.403299 0.307129 0.571205
-0.405117 -0.232659 0.149463
-0.601914 -0.233888 0.019735
0.145059 0.255933 -0.022041
-0.548498 -0.169380 -0.127906
-0.503870 -0.141799 -0.176560
0.285054 0.345973 -0.326257
-0.509123 -0.053904 0.240120
-0.464689 -0.082442 -0.271315
0.128076 0.430941 -0.499707
-0.429866 0.532820 0.247085
0.245996 0.593729 -0.253396
0.178409 0.457109 0.104060
-0.119634 0.452605 0.311578
0.179141 0.768017 -0.207787
-0.128130 0.098613 0.130978
-0.098741 0.260072 0.229514
0.342127 0.162573 -0.341272
-0.302511 0.334164 -0.148327
-0.087128 -0.187184 -0.138165
0.382090 0.502213 -0.112161
-0.452204 -0.042313 0.324718
0.153208 0.320336 0.020901
0.006277 0.387084 0.223628
-0.070910 0.317769 -0.397211
-0.358026 0.427645 0.390261
0.124389 0.763857 -0.241162
-0.456732 0.191535 -0.104765
-0.239901 0.354359 -0.196016
0.388873 0.611453 -0.046862
-0.423325 0.459715 0.354197
-0.337201 0.188909 0.415718
0.241651 0.081353 -0.521717
-0.401764 0.047554 0.368995
-0.203922 -0.118440 -0.263644
0.174016 0.144848 -0.582684
0.223627 0.385186 0.000791
-0.458069 -0.164388 0.254115
-0.334832 0.375283 -0.082699
-0.280406 0.587583 0.030791
-0.331082 -0.210305 -0.105352
0.301088 0.414949 -0.054408
-0.129690 0.375208 -0.291656
0.171810 0.693108 -0.095576
-0.645046 0.492685 0.332098
-0.247941 0.318834 0.428197
-0.118648 0.199749 0.201789
0.099713 0.116940 -0.665345
-0.194437 0.382127 0.424072
-0.141364 0.445856 0.325374
-0.246602 -0.223532 -0.100550
-0.433660 0.559079 0.164171
0.282317 0.034147 -0.489681
-0.058913 0.597847 -0.186589
-0.265825 0.470127 0.311215
-0.386059 -0.147452 -0.188806
0.193887 0.752238 -0.187001
-0.313956 -0.247756 -0.052889
-0.604409 0.123938 -0.008168
-0.470690 -0.074554 -0.281946
-0.488043 0.513585 0.285751
-0.070692 0.023116 -0.496583
-0.441689 0.545461 0.230434
-0.036533 0.457378 0.289967
-0.418045 0.570583 0.189096
-0.248506 0.289395 -0.238941
0.161363 0.640286 -0.015527
-0.341281 0.571767 0.173908
-0.047326 -0.098474 -0.320616
-0.350166 0.037454 0.308417
0.015749 0.289924 0.136679
-0.170381 0.556951 -0.105618
-0.024425 0.408573 0.271990
0.023592 0.379800 -0.444090
-0.056925 0.069426 0.035248
0.259415 0.489964 -0.287974
-0.505382 -0.329684 0.101934
-0.583456 -0.103095 -0.210140
-0.258567 0.577002 0.151679
-0.134413 0.086522 0.127755
0.215779 0.251382 -0.470424
0.333269 -0.013259 -0.443534
-0.165280 0.640396 0.041476
0.044546 0.189200 0.027215
0.322446 0.632548 -0.032258
-0.193865 -0.121034 -0.261563
-0.611684 0.385998 0.207744
-0.032559 0.564477 0.130673
0.389598 0.557107 -0.031432
-0.365828 -0.092645 -0.273508
-0.377067 -0.200091 -0.112429
0.355314 0.432243 -0.095867
-0.302487 0.540511 0.213403
0.018306 0.659064 -0.018297
-0.420632 -0.281126 0.015195
-0.452522 0.089793 0.391910
0.207875 0.010543 -0.526717
-0.548939 0.521500 0.251661
0.109604 0.429606 -0.492048
-0.217483 -0.210524 -0.023994
-0.699234 -0.125148 -0.059096
-0.225173 0.196383 0.307586
-0.336277 0.236025 0.452263
-0.505132 0.487795 0.326932
0.077544 0.462478 0.211044
0.071631 0.483767 -0.410288
0.314714 0.304466 -0.156187
0.152981 0.404752 -0.478694
0.014498 -0.079076 -0.360162
-0.234690 0.513408 0.241673
-0.053647 0.641861 0.019770
-0.282063 -0.035670 0.180888
-0.291945 0.564498 0.024174
0.396653 0.610130 -0.036787
-0.112037 0.224933 0.215095
-0.488921 0.492840 0.316624
-0.132455 0.302227 0.297384
0.128149 0.773612 -0.237229
0.058488 0.120843 -0.041369
0.300034 0.374279 -0.085693
-0.021107 0.578787 0.107478
0.332999 0.085413 -0.393390
0.225077 0.455978 -0.352830
0.405682 0.599785 -0.029603
-0.527326 0.282990 0.039886
-0.100191 0.684387 -0.035059
-0.635926 0.173413 0.063290
-0.249241 0.056024 0.220419
-0.455739 0.061582 -0.209171
-0.667428 0.187739 0.106768
0.262117 0.544054 -0.256548
0.182161 0.413396 -0.433942
-0.127579 0.512055 -0.184925
-0.177527 0.597330 -0.066215
-0.663814 0.250495 0.153018
0.385223 0.416217 -0.151857
-0.448222 -0.211123 0.210491
-0.513147 -0.053316 0.234859
-0.518549 -0.243476 -0.023422
-0.213080 0.037951 0.169217
-0.233655 0.493416 0.271098
-0.603252 0.057477 0.167051
-0.003355 0.473123 -0.342398
-0.161653 0.193484 -0.403693
-0.428954 0.130321 -0.181755
-0.614097 0.251198 0.251240
-0.376578 0.038247 -0.308347
0.303893 0.075797 -0.438540
0.008072 0.182922 0.059362
0.161168 0.446539 0.113207
-0.149438 -0.067502 0.020509
0.143240 -0.001732 -0.497228
-0.023707 -0.079671 -0.352595
0.091268 0.410087 0.155384
0.139287 0.744270 -0.165647
-0.639825 -0.121302 0.024979
-0.232182 0.420397 -0.151334
-0.216714 -0.233352 -0.042940
0.002403 0.180233 -0.581295
0.226047 0.048840 -0.269283
0.262120 0.028598 -0.322120
-0.314438 -0.007826 0.236009
-0.581732 0.338518 0.139467
0.232618 0.464083 -0.338259
0.210086 0.064013 -0.574218
-0.484435 0.208853 -0.062776
-0.670669 -0.159383 -0.121329
-0.125160 0.031412 -0.499335
-0.329877 0.172061 -0.249436
-0.248057 0.165889 -0.337664
-0.195451 0.391109 -0.212039
-0.187142 -0.173992 -0.184317
-0.027287 0.590981 -0.224256
-0.441672 -0.089984 0.300204
0.018821 -0.108582 -0.317224
-0.432700 0.270508 0.511824
-0.496865 0.248958 0.412113
0.361093 0.579979 -0.101367
-0.361184 0.368844 -0.060989
-0.499969 0.424691 0.124771
-0.075465 0.479394 0.264177
-0.609288 0.273758 0.269437
-0.030466 0.716461 -0.121183
-0.576019 0.016280 0.183598
-0.526150 -0.038025 0.224717
0.111899 0.158338 -0.065924
-0.552776 -0.133328 0.139128
0.108432 0.252397 -0.618262
0.076139 0.570998 0.101994
-0.014574 -0.175529 -0.202774
0.201465 0.383605 -0.422514
-0.449714 0.563284 0.205446
-0.059569 0.715936 -0.091965
-0.329076 0.021798 -0.369806
0.262750 0.061110 -0.502920
-0.421677 0.019433 0.366899
0.033499 0.101807 -0.031068
0.133628 0.163443 -0.628981
0.016161 -0.080410 -0.158390
-0.342229 0.201705 0.431019
-0.507971 -0.018306 0.259936
-0.288976 0.230979 -0.244208
-0.444135 -0.149733 -0.175264
0.064315 -0.113472 -0.233732
-0.316811 0.340536 0.512043
-0.252530 0.013424 -0.450407
-0.544103 0.173069 0.307976
-0.591071 0.024220 0.166860
0.195909 0.491575 -0.374917
0.254377 0.409739 -0.336009
-0.113390 0.125199 -0.507170
-0.433854 -0.199469 -0.103413
0.074266 0.026613 -0.527131
-0.413304 0.564422 0.197389
-0.248125 0.346671 0.450532
-0.266416 0.180348 0.336826
-0.436978 0.389177 0.032370
-0.402838 -0.153152 -0.177428
0.075050 0.259091 0.051761
-0.295538 0.398223 0.422893
-0.305017 -0.119838 -0.243882
-0.114024 0.400027 -0.287861
-0.212980 0.602407 -0.026074
0.219945 0.016468 -0.288825
0.234475 0.618138 0.004476
-0.558426 0.142295 0.272426
0.105978 0.557060 0.117412
-0.013414 0.478109 0.255221
-0.417700 0.515744 0.270242
-0.001594 0.255816 -0.517089
-0.291396 0.441353 0.358300
-0.554156 0.215453 0.315782
0.142203 -0.003407 -0.494566
0.387437 0.440251 -0.136494
-0.234475 0.483982 -0.098408
0.047604 0.549767 0.138428
-0.571844 -0.004201 0.178883
-0.158062 0.179265 -0.418663
0.037452 0.439352 -0.410822
0.015709 0.260988 -0.530593
-0.568535 0.282088 0.330023
-0.392358 0.074178 -0.263690
-0.015476 -0.145019 -0.257264
0.084159 0.762831 -0.183485
0.280809 0.486143 0.022887
-0.225628 0.427855 0.366779
-0.277806 -0.045303 0.168888
0.188652 0.251719 -0.069785
0.293975 0.675988 -0.091604
-0.567911 -0.088312 0.141257
0.148758 0.376733 0.070304
-0.405063 -0.322173 0.073254
-0.143191 0.033269 -0.498931
-0.592771 0.024869 0.164843
0.398663 0.595540 -0.041478
-0.476097 0.200907 0.416215
-0.044076 0.278848 -0.455503
-0.093705 0.413163 0.346190
-0.603268 0.114711 -0.016671
0.262779 0.049266 -0.306348
-0.352124 0.285984 0.508150
-0.521598 0.370183 0.439993
-0.299011 -0.067968 0.172449
-0.106038 0.092076 -0.541011
-0.035735 0.403680 -0.364677
-0.500205 -0.306722 0.123012
-0.512799 0.078892 0.303025
-0.359461 0.098213 -0.278066
0.018617 -0.021191 -0.113776
0.205551 0.566471 0.086049
-0.442396 0.120582 0.421669
0.313432 0.183726 -0.250947
0.339895 0.450258 -0.065832
-0.258454 0.606129 0.108526
0.139001 0.620774 0.017281
-0.554227 -0.116000 0.145994
-0.414133 0.502435 0.289327
-0.484267 -0.249281 0.174447
-0.487529 -0.250428 0.169351
-0.523843 -0.070928 0.211061
0.263715 0.434950 -0.310196
0.010183 0.360593 0.198574
-0.345767 -0.257053 -0.033555
-0.532597 0.304048 0.390934
-0.290390 0.436815 -0.078997
-0.632336 0.456875 0.285166
0.282326 0.098909 -0.456513
-0.491005 0.387424 0.085992
0.085686 0.171088 -0.673377
-0.494168 -0.089679 0.242473
-0.709272 -0.153518 -0.087492
-0.381747 -0.313586 0.061277
0.352947 0.631984 -0.036762
-0.239854 0.471138 0.305172
0.021074 0.563447 0.122812
-0.314356 -0.160487 -0.182052
0.255889 0.511575 -0.281783
0.360157 0.244300 -0.274514
-0.564416 -0.110642 -0.212101
-0.457361 0.189430 -0.105799
-0.181000 0.130408 0.210113
-0.316045 0.182814 -0.254965
0.108399 0.058998 -0.581062
-0.217895 0.019382 0.159347
-0.489427 -0.088348 -0.258240
-0.105768 0.388180 0.338596
0.146478 0.289502 0.003221
-0.472617 -0.327245 0.142942
0.077491 -0.003963 -0.482416
0.353705 0.177195 -0.297153
-0.595577 0.498813 0.281103
0.075450 -0.056559 -0.404173
-0.123584 0.556541 0.158355
0.033426 0.309640 0.134365
0.203169 0.053004 -0.588771
-0.141071 0.051359 -0.526089
-0.096351 0.206438 -0.459884
-0.634256 0.349031 0.273466
-0.202884 0.348756 -0.238168
-0.052907 0.225064 0.154987
-0.210069 0.610826 -0.022340
-0.205823 0.514837 0.234506
0.326298 0.302328 -0.169685
-0.602046 -0.192071 -0.084932
-0.510164 -0.054329 -0.245973
0.152857 0.144667 -0.612019
0.362992 0.476240 -0.151853
0.289132 0.377495 -0.304483
-0.458585 0.241079 -0.063460
-0.056664 0.606978 0.071955
0.036661 0.330824 0.147927
0.097311 0.426161 -0.482271
-0.606968 0.228309 0.249376
0.258058 0.413260 -0.329119
-0.063091 0.079124 0.049242
-0.621289 -0.015057 -0.101568
-0.135187 0.510564 0.228472
-0.416956 -0.308921 0.055712
0.052815 -0.082516 -0.361773
0.362658 0.516912 -0.035980
-0.372410 0.033992 -0.315977
-0.120591 0.622083 -0.104498
0.177040 0.676446 -0.306348
0.058825 -0.029176 -0.161072
-0.491240 0.062945 -0.171936
-0.631003 -0.210812 -0.052112
0.027590 0.185722 0.041714
-0.423836 0.473072 0.334507
-0.686143 -0.039948 -0.055331
0.351546 0.157786 -0.330706
0.248140 0.202849 -0.169244
-0.664880 0.143734 0.069161
-0.054587 0.158777 0.103957
-0.474345 0.376511 0.486340
-0.593135 0.448638 0.381291
-0.501881 -0.117477 0.217582
-0.259988 0.589365 0.133620
0.011236 -0.111700 -0.311279
0.280655 0.484376 -0.261480
-0.565250 0.272827 0.329822
-0.373583 -0.197028 0.145700
-0.255236 0.332498 -0.197794
-0.048895 0.385559 -0.365694
0.200946 0.084446 -0.576389
-0.356176 0.164417 0.415553
-0.508856 0.477932 0.342189
-0.455733 0.198058 0.442900
0.076282 0.295047 0.079114
0.120418 0.604374 0.044820
0.168426 0.121037 -0.153165
0.077842 0.243921 -0.607443
-0.502551 0.154309 0.355799
-0.499804 0.552770 0.226507
-0.468875 0.507268 0.158809
-0.129463 -0.135039 -0.252095
0.133146 0.006812 -0.508113
-0.642928 0.201199 0.185798
-0.250548 0.132346 0.282475
-0.143876 -0.131612 -0.254646
-0.336913 -0.004517 0.261528
-0.058850 0.431898 0.325603
0.144307 -0.041807 -0.438069
0.246230 0.214050 -0.158388
0.049217 0.736222 -0.186601
0.367032 0.323904 -0.224260
-0.685760 -0.133360 -0.044677
0.331475 0.218722 -0.327248
0.029073 -0.014231 -0.458738
-0.232880 0.041909 -0.451761
-0.633389 0.094663 0.144440
0.078000 0.186210 -0.009230
0.110143 0.252012 -0.616095
-0.663363 -0.082048 0.012546
-0.024033 0.295460 0.181595
-0.634020 0.233414 0.214602
0.254196 0.633940 -0.022375
-0.345068 0.541581 0.219270
0.090998 0.494836 -0.421202
0.042314 0.625580 0.027086
0.164579 -0.051652 -0.427037
-0.224121 0.637970 0.013566
-0.036015 0.435934 -0.338729
0.088184 -0.125739 -0.267798
-0.189795 0.169440 -0.394167
-0.469406 0.230141 0.440428
-0.475698 0.111837 0.371167
-0.633576 0.442239 0.274784
0.261120 0.656138 -0.200544
0.056935 -0.141975 -0.274445
0.274623 0.209769 -0.410404
0.223383 0.134517 -0.519746
-0.444570 0.235769 -0.081956
-0.619995 0.115519 0.001006
0.301431 0.360160 -0.098349
-0.632644 0.297769 0.249450
-0.390827 0.330785 0.539436
-0.006025 0.481540 0.248846
0.127756 0.755397 -0.251321
-0.490590 -0.162167 0.210306
-0.508618 -0.047327 0.244185
-0.365396 0.374024 0.470954
0.278514 0.352347 -0.332032
0.023389 0.042670 -0.542005
-0.468182 0.085474 0.368057
-0.620636 -0.186156 -0.090438
-0.493985 0.159247 -0.092519
-0.230648 0.466594 -0.116140
-0.263710 0.126687 0.291376
-0.439143 0.276541 0.506008
0.306959 0.668286 -0.130973
0.000026 0.399424 -0.404478
0.084892 -0.010155 -0.172483
0.082611 0.017910 -0.515703
-0.424372 -0.223978 0.175976
-0.445222 0.421648 0.414401
0.153050 0.046754 -0.196609
0.097414 0.047912 -0.139033
-0.368701 0.466268 0.334934
-0.403027 0.583346 0.167567
0.168957 0.691390 -0.092533
-0.464351 -0.240638 0.203432
0.129675 0.559046 -0.409500
0.104086 0.135307 -0.684215
-0.286312 0.479251 0.301289
0.274031 0.124643 -0.454803
-0.326670 -0.243092 0.061279
-0.327479 0.113726 0.346000
-0.683299 0.138607 0.097959
0.068761 0.624324 0.024317
0.003388 0.377087 0.218616
-0.606776 0.367528 0.188051
-0.305330 -0.268516 -0.023657
0.249284 0.460845 -0.316883
-0.218604 0.168587 0.278781
-0.217246 -0.108123 -0.276590
0.339325 0.363288 -0.242388
0.234445 0.287805 -0.087706
-0.182596 0.233870 0.294056
-0.418702 -0.198423 0.190535
0.171034 0.336490 -0.488692
-0.196517 0.018166 -0.467232
0.154489 0.116712 -0.142414
0.144309 0.767570 -0.258492
-0.095509 0.486556 -0.237870
0.072493 0.529182 0.164555
-0.483331 0.469960 0.143846
-0.232457 0.591719 -0.014744
0.048895 -0.047893 -0.165853
0.165723 0.597551 0.046994
0.002789 0.722250 -0.109150
0.223558 0.269048 -0.450630
-0.075182 -0.107314 -0.086782
0.054994 0.698640 -0.222386
-0.495217 -0.244021 -0.026698
-0.025953 0.725891 -0.109511
-0.552784 0.383239 0.403577
-0.527663 -0.142766 0.169002
-0.302026 0.388861 -0.105303
-0.111811 0.085637 -0.540255
-0.358602 -0.238357 -0.058996
0.037766 0.576606 -0.301937
-0.003822 0.570479 0.116757
-0.549675 0.235510 0.024867
0.210173 0.000130 -0.511699
-0.116987 0.043375 -0.518482
0.045154 0.573203 0.104151
-0.584750 0.021155 -0.109964
-0.489435 0.404066 0.448174
-0.632591 0.226629 0.102235
-0.251508 0.281537 -0.242136
0.241533 0.430231 -0.343269
0.212032 -0.045163 -0.444952
-0.231452 -0.171935 0.020934
-0.562128 0.110490 0.251027
-0.475204 -0.183558 0.220619
0.311324 0.292810 -0.317168
-0.170643 0.044888 -0.511331
-0.697282 0.033740 0.014641
-0.201695 0.570355 0.151570
-0.270057 0.479873 0.297523
-0.366523 0.279503 0.517656
0.281967 0.608992 -0.195868
-0.570951 0.020862 -0.124249
-0.233092 0.153993 0.281923
-0.543957 0.079830 0.260444
-0.040183 -0.073753 -0.358475
-0.601351 0.450398 0.370838
0.034865 0.500218 0.214031
0.297052 0.206567 -0.381046
-0.479848 0.152088 0.386037
-0.219101 -0.228861 -0.097471
0.131422 0.353563 0.069523
-0.440359 -0.021575 0.351705
-0.205148 0.196320 -0.357145
-0.455229 0.486513 0.320097
-0.611226 -0.038373 0.106961
-0.185961 -0.014175 0.100128
-0.385410 -0.171184 -0.153776
0.048856 0.477854 0.244700
0.123856 0.130833 -0.099985
-0.676350 -0.029442 0.021530
0.229833 0.449053 -0.349802
-0.516399 0.464243 0.363781
-0.285708 0.374058 0.456958
0.210003 0.119571 -0.545889
0.015216 0.180023 -0.594510
-0.080917 0.543858 0.169671
0.354961 0.551266 -0.000808
-0.128720 -0.181957 -0.182747
-0.666320 -0.170380 -0.105806
-0.456794 -0.132983 -0.197853
-0.396698 -0.096821 0.248967
-0.679598 0.191115 0.129955
-0.484060 -0.079224 0.261795
-0.036325 0.475778 0.262682
-0.133780 0.171515 -0.449556
-0.086374 0.558374 0.149129
-0.090434 -0.132581 -0.091354
0.152783 0.318938 0.020222
-0.464618 0.537085 0.246851
0.367381 0.492930 -0.137243
0.386159 0.403535 -0.157056
-0.588449 0.366406 0.345668
0.315400 0.395699 -0.084298
0.119339 0.223323 -0.021796
0.272134 0.068023 -0.300951
0.174137 0.086669 -0.612301
0.075681 0.360781 -0.512264
-0.337770 0.384706 -0.072210
-0.330650 -0.143629 -0.204164
-0.388309 0.589082 0.141862
-0.423793 -0.140024 0.242184
-0.619385 0.402925 0.321610
0.084255 0.010431 -0.504917
-0.535141 0.528725 0.271574
-0.575605 -0.016336 -0.149106
0.058339 0.558064 -0.337639
-0.198259 -0.200074 -0.035256
-0.318954 -0.131998 0.141812
-0.660778 0.034959 0.076021
0.267824 0.414022 -0.021273
-0.252366 0.408997 -0.139850
0.162496 0.028869 -0.545913
-0.028232 0.274610 0.169280
-0.569965 -0.230224 0.065765
-0.557399 -0.184240 0.106674
-0.559977 0.000871 0.197880
-0.173577 0.197845 0.256209
0.345994 0.641824 -0.050116
-0.423770 0.378056 0.475200
-0.373634 0.065544 -0.289627
-0.174495 -0.151686 -0.219563
0.231539 0.376881 -0.384393
-0.584651 0.141366 -0.014421
-0.152965 0.191117 0.229866
0.398890 0.534358 -0.072487
0.027435 0.671263 -0.037959
-0.598463 -0.178171 0.053029
0.355828 0.275338 -0.264608
-0.024474 0.222489 -0.520306
-0.649496 0.457827 0.308103
0.224648 0.609714 0.018670
-0.036415 -0.156505 -0.236591
-0.314052 -0.004654 -0.406150
-0.444291 -0.292277 0.141919
0.210844 0.417276 -0.392314
0.286759 0.357947 -0.317770
-0.489314 0.217836 0.406615
-0.217421 0.589994 0.125239
-0.595457 -0.030574 0.132747
-0.456741 0.291129 0.489156
0.029583 0.739772 -0.139787
-0.509922 -0.280712 0.030209
-0.592431 0.286898 0.299461
-0.496708 -0.225032 0.169667
-0.362119 0.343492 0.515595
0.050542 0.750085 -0.176920
-0.274686 0.342246 0.474058
-0.127097 0.664036 -0.000213
-0.541322 0.494629 0.323146
0.080779 0.539871 -0.374965
-0.153298 -0.010670 -0.432094
0.034223 0.660700 -0.231421
-0.307355 -0.213197 0.065396
0.025448 -0.015277 -0.116026
0.298311 -0.015881 -0.493189
-0.083376 -0.159942 -0.120311
-0.503490 0.533641 0.215040
-0.207167 0.154178 0.255670
-0.422479 -0.047686 -0.329977
-0.388035 -0.178870 -0.141936
-0.373316 0.211273 -0.174004
0.208706 0.547722 -0.328486
-0.572208 -0.096871 0.130936
-0.553506 0.008433 -0.151901
-0.104072 0.638952 0.032902
-0.178235 -0.209148 -0.062866
-0.219295 -0.077696 -0.321289
-0.497210 0.214310 -0.045425
-0.032472 0.647892 -0.173696
-0.617493 0.051301 -0.052636
-0.307574 -0.169276 -0.170224
-0.047584 -0.023804 -0.431146
-0.636619 0.234258 0.211442
-0.673006 -0.162028 -0.041728
-0.149573 0.042456 -0.511419
0.380519 0.490175 -0.120495
-0.031001 0.139149 0.064324
0.336127 0.430494 -0.212401
-0.228771 -0.226422 -0.099391
0.064266 0.025827 -0.524217
-0.289853 -0.252474 0.016324
-0.399827 0.581879 0.169180
-0.145662 0.262330 -0.365201
-0.534235 -0.070793 -0.234561
0.026046 0.453310 -0.388101
0.108269 0.496005 0.206431
0.101775 0.548755 0.130446
0.348695 0.482342 -0.168488
-0.004955 0.373919 -0.419699
-0.110778 -0.070923 -0.021580
-0.466681 0.218471 0.438220
-0.409820 0.163198 0.469209
0.352036 0.107023 -0.351285
-0.423295 0.143002 -0.177428
-0.536801 0.123387 0.292632
-0.523871 -0.123573 -0.200048
-0.112412 -0.010951 -0.438834
-0.433208 0.223329 -0.103423
-0.129981 -0.220552 -0.121076
-0.541432 -0.208122 -0.071771
-0.358264 0.475421 0.020835
0.180311 0.337704 0.007122
0.336393 -0.017248 -0.441258
-0.318797 0.092567 0.320324
-0.164966 -0.193870 -0.064221
0.141068 0.749279 -0.173376
-0.600482 -0.240954 0.018095
-0.060770 0.625728 0.044907
0.280471 0.361805 -0.324485
-0.450424 -0.150589 0.260896
0.134691 0.232949 -0.591929
-0.223168 0.404547 0.400864
-0.279913 0.411752 0.400125
0.040261 0.089638 -0.614510
-0.519686 0.277579 0.395226
-0.520557 0.044577 0.274735
-0.286345 0.604472 0.050277
-0.504881 0.162022 0.356527
0.357297 0.540751 -0.126697
0.274938 0.559771 0.083827
-0.416779 0.435086 0.389523
-0.222943 -0.204800 -0.013880
-0.474403 -0.330560 0.097809
-0.574258 -0.254444 0.002569
0.079027 0.487541 0.225076
-0.144006 0.596724 0.102424
0.004098 -0.148989 -0.200671
-0.227617 -0.009456 -0.420886
0.216128 0.170816 -0.162134
0.360724 0.576316 -0.103753
-0.112901 -0.214664 -0.133784
0.189544 0.247042 -0.508904
-0.431308 0.111688 0.432439
0.262646 0.012335 -0.528034
-0.013933 0.508760 -0.303273
-0.094501 -0.113116 -0.071725
-0.448343 -0.265317 0.167495
-0.640631 -0.145730 -0.146803
-0.307629 0.222463 0.412302
-0.449269 -0.035329 -0.292866
0.071759 0.693793 -0.079081
0.322074 0.492539 -0.200058
-0.153774 0.303628 -0.324082
-0.107592 0.219108 0.205933
0.008313 0.647789 0.000148
0.398244 0.490129 -0.096023
-0.645104 0.380534 0.274602
-0.131127 -0.027957 0.033326
0.294070 0.654132 -0.156033
-0.375339 0.273162 -0.122702
-0.502313 -0.212862 0.168152
0.039838 0.579472 0.095797
-0.390378 -0.064879 0.267946
0.216371 0.512467 -0.335941
0.376443 0.423567 -0.160230
0.184882 -0.086231 -0.334832
-0.257344 0.276984 0.404475
0.145817 0.526350 0.155917
0.138774 0.521238 0.164718
-0.350513 0.058904 -0.318453
-0.368615 0.077143 -0.285509
-0.377029 -0.007575 -0.344345
-0.606573 0.416541 0.346287
0.067313 0.591052 0.073842
0.203156 0.349240 -0.437770
-0.593219 0.401104 0.356841
0.212186 0.682165 -0.254847
-0.276439 0.520867 0.237934
-0.234142 0.083419 -0.417449
-0.057457 0.004114 -0.016176
-0.193537 0.117921 0.212944
0.040547 0.021488 -0.513640
-0.006732 0.564455 0.126185
0.146242 0.514103 0.173978
0.178243 0.519235 0.153659
-0.443242 0.524455 0.146381
-0.184721 0.620947 0.073680
0.120714 0.213115 -0.621398
-0.288497 0.616733 0.062224
-0.426048 0.383510 0.016731
0.060596 -0.070270 -0.195571
0.268093 0.698989 -0.168968
0.191239 0.504174 0.128442
0.056509 0.688056 -0.067916
-0.466640 -0.242361 -0.034157
0.114162 0.333997 0.071531
-0.324342 0.004136 0.255612
-0.571788 -0.252951 -0.000073
-0.350965 -0.007672 -0.370964
0.008772 0.391356 0.224486
-0.188989 0.188040 0.264101
-0.027153 0.356339 0.233209
0.193914 0.286584 -0.482621
-0.184200 -0.129167 -0.251210
0.247591 0.120223 -0.234426
0.183642 0.246780 -0.517195
-0.529183 -0.264696 0.104479
-0.339525 -0.245241 0.072659
-0.017317 0.269086 0.153771
0.218219 0.520015 0.113572
-0.324526 -0.174672 -0.159266
-0.142526 -0.186829 -0.081470
-0.027031 0.475610 -0.316310
0.225995 -0.005041 -0.312099
-0.050797 0.002671 -0.469789
-0.673974 0.176036 0.130009
0.052190 0.717368 -0.204630
-0.014102 -0.173475 -0.201620
-0.250979 -0.163885 0.047222
-0.433132 -0.243915 0.169034
-0.545005 -0.042948 0.196139
-0.604829 0.087859 0.180427
-0.531590 -0.068564 -0.235480
-0.458255 -0.140607 0.266032
-0.595626 0.418691 0.362518
0.231061 0.313679 -0.417411
0.142963 0.724755 -0.137392
0.007702 -0.042580 -0.119678
-0.010386 0.675530 -0.037660
-0.137666 0.163000 0.191917
-0.051556 0.458703 0.290633
-0.366495 0.129884 0.398585
-0.279861 0.335654 0.474084
-0.360413 -0.238028 0.099669
-0.010478 0.053981 -0.024338
-0.546159 -0.255428 0.085763
-0.619584 -0.202768 -0.066022
-0.302937 -0.263381 -0.031681
0.080445 0.529818 0.162221
0.332023 0.525190 0.001802
0.098457 0.501786 0.200581
0.247201 0.086783 -0.511266
-0.341097 -0.204112 0.106984
0.176948 -0.026976 -0.279607
-0.513073 -0.157205 -0.152135
0.238711 0.267570 -0.430444
0.219057 -0.028215 -0.323472
-0.374287 0.073224 -0.282851
-0.655801 0.313224 0.225359
0.188438 0.435688 -0.413854
-0.134292 0.464337 0.296769
0.124252 0.303376 -0.570299
0.059156 0.356268 -0.499027
-0.627228 0.070057 -0.027801
0.276597 0.376452 -0.322341
0.023584 0.587154 -0.279103
-0.461178 -0.235890 0.203979
-0.293754 0.091364 -0.350425
-0.644128 0.201758 0.094195
-0.638074 0.468486 0.329345
0.356734 0.378997 -0.139678
-0.542679 -0.027334 0.207347
-0.360465 0.180994 -0.211180
-0.636805 0.354684 0.208411
-0.296793 -0.270496 -0.022219
-0.080377 -0.052135 -0.383453
0.364393 0.318355 -0.230747
0.275597 0.036166 -0.497935
-0.308667 0.174106 -0.269407
-0.651366 -0.099053 -0.137770
0.167882 0.139182 -0.594061
-0.184727 0.361150 0.397493
0.054477 0.739900 -0.189032
0.128045 0.724827 -0.134888
-0.184780 0.146952 -0.417166
-0.179812 0.463741 0.305618
0.151693 0.336481 -0.515426
0.235545 0.473399 -0.329443
0.376346 0.325916 -0.210356
0.058391 0.603790 0.056540
0.082753 0.352791 0.118468
-0.109953 0.008385 -0.467898
0.284024 0.496111 0.027544
0.059189 0.670410 -0.042254
-0.552758 -0.258145 0.004288
-0.142653 -0.028746 -0.407190
-0.276157 -0.151533 -0.201997
-0.061174 -0.088572 -0.086134
-0.405904 0.414203 0.418546
-0.452734 -0.102573 -0.243596
-0.524680 -0.046922 0.222194
-0.181311 0.368994 0.400257
-0.396944 0.058487 -0.271505
0.161906 0.261190 -0.539858
0.080088 0.465269 0.210673
-0.077155 0.310830 -0.396374
0.109246 -0.083275 -0.255459
-0.425273 0.097291 0.432507
-0.671910 0.161778 0.090676
0.068528 0.423514 -0.455067
0.270675 -0.021626 -0.370793
-0.235187 0.573771 0.152373
0.207571 0.674812 -0.264990
-0.140133 0.239619 0.255389
-0.208539 0.215139 0.305571
-0.641927 0.096812 0.133740
0.176699 0.695378 -0.297127
-0.125956 0.501924 0.239650
-0.018837 0.722515 -0.105758
-0.128207 -0.059281 -0.364500
0.058818 0.278193 -0.560803
-0.521902 0.308828 0.408162
-0.629975 0.405534 0.241914
-0.299734 0.457414 0.335975
-0.664571 0.242360 0.176959
0.090078 0.055235 -0.572283
0.221282 0.050757 -0.565531
0.211278 0.556234 -0.320573
0.013170 0.620248 0.040082
-0.633939 0.047645 -0.038799
-0.033792 0.723589 -0.104731
-0.601178 -0.098661 -0.188566
-0.297604 0.074078 -0.360258
-0.498751 -0.121034 0.220086
0.248307 0.332845 -0.065985
-0.409243 0.455578 0.357860
0.246244 -0.069771 -0.414499
-0.146794 -0.079119 0.008574
-0.031217 0.175878 -0.550525
-0.625727 0.103016 0.159305
0.051648 0.403676 0.190628
0.133669 0.057834 -0.583761
0.187274 0.716944 -0.271471
-0.199675 0.266440 -0.306929
-0.585106 0.126381 0.227406
0.161357 0.598835 -0.367757
-0.036535 0.665600 -0.018378
0.242993 0.204015 -0.457063
0.158013 0.121527 -0.616739
-0.690325 -0.015172 0.009521
-0.471672 -0.030077 -0.265873
-0.284787 -0.035674 0.183659
0.236210 0.622836 -0.252019
-0.460970 0.494763 0.308884
0.120621 -0.032977 -0.447000
-0.000011 0.313694 0.171640
-0.558829 0.205003 0.303973
-0.000802 -0.116728 -0.301727
0.092301 0.097435 -0.635163
-0.547419 -0.205323 -0.074869
0.107701 0.422119 0.148223
-0.174764 0.356039 0.383282
0.198851 0.338843 -0.010852
-0.327378 0.393260 -0.075986
0.340809 0.393386 -0.224928
0.277092 0.687854 -0.106221
0.264373 0.261540 -0.139078
0.185542 0.700246 -0.282414
-0.261709 0.068666 -0.401116
0.358220 0.533413 -0.129178
-0.087129 0.128398 -0.531366
0.225396 0.041080 -0.274794
-0.139776 -0.185127 -0.176117
0.305612 0.308959 -0.316795
0.329781 0.511731 -0.179582
0.129169 0.145662 -0.644247
0.364183 0.200215 -0.289507
-0.453805 -0.007108 -0.265793
-0.459172 0.185996 -0.106688
-0.454243 0.212894 0.452554
-0.150851 -0.220576 -0.099844
-0.338321 0.344268 -0.103823
0.266507 0.552898 -0.245954
-0.182689 0.105564 0.192066
-0.393704 0.161887 0.451755
-0.514782 0.501594 0.308188
-0.211231 -0.118894 0.042544
-0.628628 0.151665 0.180201
-0.070289 -0.063108 -0.056592
-0.605139 -0.054261 -0.149205
-0.378299 -0.137359 0.197978
-0.010882 -0.030740 -0.427299
-0.005817 0.212722 -0.547074
0.156756 0.417289 0.094427
0.123114 0.004847 -0.199467
-0.510792 -0.114169 0.206959
-0.449084 -0.095058 -0.255363
-0.139145 0.001750 0.065127
-0.404888 0.397623 0.442919
0.227617 0.443726 -0.355592
-0.449561 0.382806 0.472680
0.133072 0.291007 -0.564442
-0.107553 -0.077705 -0.030261
-0.464258 0.336419 0.501953
-0.608160 0.372285 0.193246
-0.693948 0.067045 0.037745
-0.487969 0.149496 -0.106404
0.397682 0.609330 -0.011043
-0.327682 0.157213 -0.263485
-0.066411 0.289336 -0.424415
0.183494 0.184896 -0.117701
-0.225523 0.293209 0.384980
-0.588288 0.405469 0.199413
-0.317563 -0.069515 0.190109
0.216435 0.419676 -0.383358
0.292462 0.170047 -0.240477
-0.436901 0.488509 0.111325
-0.360018 -0.304532 0.039248
-0.477966 0.272217 -0.018948
-0.008369 0.398878 0.247925
-0.183912 0.191176 -0.382863
-0.407807 0.307394 0.565111
0.069848 -0.082903 -0.364181
-0.151396 0.305281 0.319101
0.051907 0.445501 -0.420648
0.180312 0.342640 0.011048
-0.302997 0.118005 0.324474
0.218939 0.705192 -0.233725
-0.022868 0.698282 -0.143384
0.160505 0.607174 -0.364665
-0.609194 -0.113094 -0.191886
0.116833 0.420231 -0.506868
-0.605863 0.000689 0.134370
-0.113991 0.042738 -0.518062
-0.525435 -0.251405 -0.010475
0.257427 0.183830 -0.447448
-0.432985 0.355311 0.510495
-0.277664 0.085720 0.272991
0.108028 0.487108 0.199597
0.384497 0.620050 -0.024610
-0.416761 -0.169850 0.211293
-0.646077 0.236221 0.199375
-0.198616 0.650199 0.032794
-0.497467 0.141593 0.356315
0.257358 0.122982 -0.478696
0.120177 0.662175 -0.317775
-0.422283 0.531018 0.248426
-0.635420 0.456365 0.326808
0.133544 0.019528 -0.527014
0.159937 0.735335 -0.156030
-0.058134 0.589954 -0.193662
-0.324208 0.281367 -0.168240
-0.486217 0.138467 -0.116963
0.156100 -0.072460 -0.394741
0.292349 0.672907 -0.086757
0.126773 0.113203 -0.116982
-0.181098 0.602604 0.100208
0.253908 0.378642 -0.352577
0.069818 -0.033904 -0.436736
-0.490610 0.083356 0.335976
-0.588201 0.136906 -0.014354
-0.534075 0.479491 0.344295
0.117793 -0.066378 -0.397043
-0.331563 -0.118249 -0.241589
0.226857 0.274023 -0.443523
0.214092 0.681168 -0.085294
-0.036986 0.057566 0.005507
-0.481622 0.455935 0.369998
-0.618794 0.028922 -0.069118
-0.080015 0.085926 0.071888
0.274895 0.700072 -0.159013
0.297325 0.374142 -0.294877
-0.298180 0.215903 0.397460
0.128969 0.071561 -0.152349
0.205059 0.423645 0.050297
-0.678960 0.007373 0.036769
-0.310378 -0.056589 -0.336606
-0.148011 -0.053856 0.029914
0.058161 -0.087610 -0.206888
-0.045221 0.052813 -0.545018
-0.523512 -0.181592 0.154863
0.163311 0.598534 0.045960
-0.285446 0.151963 -0.310670
0.366476 0.269717 -0.252768
-0.516000 -0.079081 0.217726
0.025135 -0.016205 -0.455126
0.228017 0.361006 -0.397389
-0.291536 0.322125 -0.169083
-0.429228 -0.201377 0.198904
-0.189441 0.408919 0.388487
-0.318504 0.417313 -0.065886
0.240590 0.106774 -0.237997
0.313291 0.562316 0.050416
0.139669 0.520658 -0.437753
-0.458474 -0.167845 -0.145935
0.060441 0.030342 -0.530233
0.187844 0.624126 -0.318202
-0.364827 0.019898 -0.334912
-0.290373 -0.054929 0.174027
0.152649 -0.013887 -0.480874
-0.168420 0.160763 -0.422836
-0.600242 0.082908 -0.045056
-0.627978 0.020828 0.114117
-0.587888 0.324531 0.325006
0.210095 0.552460 0.106002
-0.447996 0.065842 0.385904
-0.594287 -0.242080 -0.012234
-0.120275 0.608628 -0.115526
0.109585 0.231409 -0.005430
0.309684 -0.044718 -0.428888
0.340084 0.048478 -0.402508
-0.245455 0.282983 -0.247149
-0.078092 0.530252 -0.220840
-0.660297 0.165449 0.143490
0.291323 0.457850 -0.010330
0.203689 -0.066448 -0.411972
-0.447046 -0.118834 -0.220512
0.134752 0.156887 -0.090351
0.120258 0.540120 -0.414968
0.270264 0.398522 -0.036090
-0.638550 -0.217477 -0.040922
0.129590 0.621505 0.017846
0.342127 0.007366 -0.420732
0.101997 -0.067391 -0.235439
0.347689 0.257670 -0.226998
-0.063400 0.545289 0.164485
-0.256120 0.608982 0.023087
-0.580531 -0.031312 -0.156004
-0.437131 0.005275 0.369913
-0.134486 0.655660 0.013484
0.225563 0.384359 -0.001839
-0.585095 0.150283 -0.006875
-0.039978 -0.152180 -0.158327
0.133854 0.280386 -0.568799
-0.656471 0.124355 0.127740
-0.251433 -0.073970 -0.321182
-0.212823 -0.210837 -0.125261
0.016432 0.489760 0.232743
0.240630 0.535619 -0.290562
0.199450 0.648822 -0.289519
-0.271230 0.057281 -0.400478
-0.697930 -0.129827 -0.114840
-0.327528 0.610640 0.097121
0.356301 0.594194 -0.100713
0.045673 -0.058328 -0.170874
0.343066 0.602651 0.008405
-0.593486 0.067588 -0.064124
0.322567 0.474506 -0.028894
-0.068049 0.575994 0.119829
-0.657419 0.223374 0.177124
0.017037 -0.104902 -0.322361
0.134030 0.592701 0.059723
-0.038613 -0.164913 -0.169848
0.242233 0.227623 -0.143519
-0.616358 -0.192836 0.020790
0.012078 0.525674 0.180322
-0.051720 -0.127439 -0.276954
-0.310466 0.302937 0.479218
-0.119540 0.199232 -0.442004
-0.075200 -0.079855 -0.343309
0.182695 0.300562 -0.490970
0.154324 0.131881 -0.616537
0.223315 0.646946 -0.257498
-0.521877 -0.271799 0.110940
0.039757 -0.132275 -0.223685
-0.278630 -0.070048 0.150039
0.196157 0.644479 -0.296295
-0.345238 -0.247647 -0.047577
-0.251172 -0.023831 0.158851
0.332704 0.124438 -0.373820
-0.512885 0.038139 0.282043
-0.617185 -0.125642 -0.180655
-0.516013 -0.281410 0.114124
-0.059198 0.049054 0.021353
0.192459 0.420716 0.060798
-0.295638 -0.262802 -0.033815
-0.148027 0.474878 0.283564
0.227218 0.637355 -0.022711
0.277339 0.662403 -0.174921
-0.496901 0.033044 0.301524
-0.524151 0.255296 0.014618
0.161609 -0.102461 -0.351277
-0.247359 -0.031466 0.148893
0.224495 0.325799 -0.047344
-0.626672 0.250617 0.233564
-0.417544 0.061595 -0.248055
-0.442769 0.442513 0.383075
0.345541 0.256372 -0.288533
-0.326442 0.138867 0.364947
-0.282448 -0.188833 -0.145659
0.195703 0.053517 -0.588225
-0.675186 0.008947 -0.027586
-0.270931 -0.258138 -0.045046
-0.477973 -0.139231 0.239486
-0.129203 -0.054020 0.010630
0.238150 0.189148 -0.169974
-0.200018 0.544091 -0.085671
-0.539582 -0.005710 0.222697
-0.549163 0.321097 0.376768
-0.571843 0.272798 0.320696
-0.113761 0.657462 -0.083305
-0.181235 0.046147 0.143310
0.074858 0.624194 0.023442
-0.045636 0.090446 -0.600673
-0.468995 -0.091836 0.276158
-0.590124 0.148200 -0.003411
-0.256771 0.410097 0.398526
0.059418 0.307180 0.105941
0.167128 0.095342 -0.617548
-0.463919 -0.005598 -0.254292
-0.047311 0.258917 0.176223
0.011206 0.295073 -0.498888
-0.375839 -0.025640 0.284360
-0.543113 0.328049 0.388688
-0.006009 0.232670 0.113282
-0.655690 0.247596 0.142439
-0.226964 0.012051 0.162749
0.198816 0.542130 -0.345018
-0.168424 0.330573 0.356564
-0.062391 0.554490 0.150684
-0.361147 0.560077 0.194695
0.258256 0.553141 0.096565
-0.539104 0.454545 0.382116
0.203009 0.332436 -0.446577
0.181619 0.672245 -0.066398
0.219236 0.651980 -0.042971
-0.390545 0.320538 0.554560
0.279732 0.334925 -0.339269
-0.243344 0.617643 0.016968
0.199317 -0.009921 -0.494915
-0.284087 0.569189 0.167715
0.223290 0.263520 -0.453830
-0.266828 0.562893 0.174019
-0.419815 -0.064255 -0.306101
-0.024977 0.704754 -0.136086
-0.099699 -0.199249 -0.162218
0.347824 0.491500 -0.165004
-0.263076 -0.049727 -0.355045
0.297958 0.466103 -0.246922
0.272578 0.646737 -0.044543
0.306415 0.147120 -0.398540
0.193672 0.360434 -0.445147
-0.505842 0.270615 0.410794
-0.163441 -0.120646 -0.007515
-0.363700 -0.157995 -0.177107
-0.167857 0.524402 0.213697
0.101939 0.429215 -0.484553
0.380856 0.522249 -0.103610
-0.393585 0.409559 0.423266
-0.156711 0.349218 -0.284819
-0.152342 0.413556 0.375127
-0.043670 -0.082980 -0.099510
-0.638257 0.213819 0.097812
0.201580 0.193090 -0.129598
-0.515073 -0.141686 0.186956
0.307214 0.344304 -0.296486
-0.285208 0.341422 0.484118
0.284499 0.623126 -0.185134
0.136689 -0.009404 -0.484720
-0.084360 0.621820 0.054823
-0.423932 0.572662 0.187046
0.087248 0.718264 -0.239616
-0.135620 0.533613 0.194414
-0.081632 0.456776 0.298750
-0.063837 0.399831 -0.339123
0.261198 0.725769 -0.159586
-0.589260 0.027522 -0.100306
-0.601796 -0.187815 -0.091279
-0.574807 -0.138845 0.105856
-0.370517 -0.224685 -0.077155
0.133035 0.041234 -0.559067
-0.318671 0.026374 0.267530
-0.360190 -0.098270 0.210638
0.178979 -0.050101 -0.300074
0.236183 0.741879 -0.191112
-0.151515 -0.225207 -0.102852
-0.498477 -0.103558 -0.234132
0.157933 0.484552 -0.430997
0.289375 -0.028303 -0.395147
-0.508533 -0.300243 0.114819
-0.240527 0.495888 0.268640
-0.600228 -0.091212 -0.183606
0.064307 0.607998 0.049273
-0.115343 0.153673 0.161765
-0.534056 -0.164445 0.149069
0.058185 0.229182 -0.599152
-0.342437 0.118297 -0.279422
-0.162555 0.321040 0.343004
-0.314021 -0.010068 0.233801
0.188495 0.747058 -0.254366
-0.669484 0.210209 0.153709
0.233497 0.601719 0.028961
-0.272864 0.425280 0.378858
-0.007250 0.071174 -0.013945
-0.063077 0.661642 -0.007872
-0.274301 -0.229697 -0.086573
-0.517447 -0.153206 0.177776
-0.347932 0.568928 0.179275
-0.586220 0.057269 -0.079733
-0.462046 -0.083127 0.290220
-0.289785 0.302697 0.457967
0.172626 0.687509 -0.306785
0.175815 0.252351 -0.525160
0.355279 0.211563 -0.271411
-0.145214 -0.187174 -0.172135
0.376369 0.313654 -0.211660
-0.555982 -0.170532 0.115650
-0.044603 0.720624 -0.103475
0.115879 0.038861 -0.165038
0.272350 0.559251 -0.234625
0.291299 0.264424 -0.359376
-0.615082 -0.193544 -0.080470
-0.242017 0.618865 0.086790
-0.533650 0.050445 -0.138695
0.119792 0.773513 -0.205539
0.004065 0.588299 0.088987
-0.160215 0.115725 0.177265
-0.320131 0.155934 -0.272192
0.373312 0.356710 -0.174290
-0.407598 0.540901 0.231221
-0.514881 -0.253305 0.130077
-0.200089 0.393096 -0.205736
0.143875 0.044616 -0.188968
-0.069503 0.380574 -0.348674
-0.054484 0.130638 0.081464
-0.661613 0.295624 0.186683
-0.030925 -0.030358 -0.424355
-0.285511 -0.234918 -0.076880
-0.498915 -0.242251 0.157802
-0.447654 0.060740 -0.218074
-0.186520 -0.166451 -0.020458
-0.583168 0.518859 0.294588
0.388460 0.625848 -0.033891
-0.317008 0.413366 -0.070550
-0.448009 -0.055588 0.323719
-0.156278 -0.001968 0.079615
0.371179 0.258522 -0.250240
-0.467574 0.076286 -0.185420
0.013766 0.477108 0.251946
0.210014 0.220278 -0.116555
0.186822 0.592771 0.050381
-0.343304 0.134943 -0.265295
0.188404 0.325943 -0.470085
0.337262 0.028733 -0.398531
-0.404606 0.533057 0.242314
-0.108160 0.606103 0.082263
-0.261282 -0.212885 -0.113747
-0.553175 0.198190 -0.001262
-0.509455 -0.163809 0.183394
-0.464112 0.282242 0.474419
0.091342 -0.052285 -0.413283
0.065825 0.682297 -0.061018
-0.583434 0.388701 0.364014
-0.108369 -0.015332 0.020197
-0.311176 0.481734 0.301963
-0.404573 0.089631 -0.238957
0.354080 0.438647 -0.089515
0.010392 0.360580 -0.445940
-0.306576 -0.257931 -0.039113
-0.540089 -0.141879 -0.170102
-0.388071 0.504078 0.073988
-0.187587 0.209487 0.279738
-0.224797 0.470001 -0.119387
-0.203306 -0.005068 -0.431639
0.091271 0.709918 -0.106374
-0.238589 0.217043 -0.306605
-0.441511 0.241613 0.484854
-0.136011 0.430108 0.347758
0.104678 0.338355 -0.559634
-0.361281 0.065094 -0.302564
-0.125815 -0.207369 -0.145623
-0.374028 0.169976 0.438155
-0.222713 0.326793 0.408840
0.216904 0.057933 -0.567907
-0.071437 0.482347 0.259100
0.042627 0.523825 -0.348881
0.187749 0.684198 -0.085171
-0.533361 0.162048 0.317180
-0.203808 0.031602 0.154724
-0.105061 -0.058255 -0.017323
-0.144321 0.183074 -0.429625
-0.707682 -0.038666 -0.026495
-0.360275 0.419433 0.402815
0.314662 0.165426 -0.377770
-0.638327 -0.185590 -0.088180
-0.488218 0.106911 -0.140032
-0.213525 0.366988 -0.212826
0.119963 0.663291 -0.042348
-0.380372 0.582325 0.165113
0.175656 0.094806 -0.606036
-0.430866 -0.324714 0.102440
0.166328 0.301243 -0.513241
0.176268 0.264062 -0.518538
-0.149677 0.431124 -0.226813
0.086299 0.693971 -0.257978
-0.280671 0.058074 0.254057
-0.497840 0.482803 0.168838
-0.453214 -0.034638 -0.288298
0.133424 0.241063 -0.022026
-0.184702 0.379224 0.411849
-0.075041 0.703866 -0.068306
-0.117771 0.554084 0.160977
-0.466000 -0.126562 0.262519
0.356729 0.356680 -0.221718
-0.072944 0.137616 -0.538476
0.168840 0.411910 -0.453112
-0.287903 0.587826 0.140785
-0.555767 0.205442 0.308429
0.231571 0.358187 -0.028780
-0.011546 0.225090 0.112890
0.074974 0.058101 -0.573883
-0.665311 0.225771 0.134870
-0.530176 0.499125 0.314537
-0.621527 0.114795 0.171139
-0.184677 0.177877 -0.392666
-0.439291 0.405836 0.436778
0.084403 0.761805 -0.202077
-0.344462 0.255792 -0.167964
-0.280145 0.594841 0.036301
-0.172395 -0.190235 -0.162844
0.062432 0.728472 -0.128803
-0.257401 0.225242 0.363365
0.144439 0.319046 0.028805
-0.505643 -0.247397 0.145868
0.146046 0.386344 0.080713
0.275123 0.373021 -0.326135
-0.692654 -0.177749 -0.076931
-0.314112 0.496799 -0.007116
-0.502007 0.146687 -0.094344
0.129817 0.115531 -0.658777
-0.148234 0.515909 0.222839
-0.000846 0.510803 -0.314974
-0.029864 0.303245 -0.450565
0.169226 0.178121 -0.108561
-0.245994 0.273779 0.390367
-0.333825 0.202448 -0.221239
-0.217079 0.004200 -0.442952
-0.241922 0.081555 0.233281
0.346597 0.144890 -0.344148
0.338620 0.396038 -0.226595
-0.640363 -0.203396 -0.017793
-0.466255 0.105043 0.380739
-0.224854 0.391134 -0.182078
0.257515 0.185590 -0.446426
0.140083 0.000475 -0.499943
0.176337 0.609612 -0.341536
0.214332 -0.007755 -0.302382
0.307186 0.193384 -0.236902
0.196030 0.186873 -0.128893
0.158774 0.593906 0.053609
