ply
format ascii 1.0
element vertex 1664
property float x
property float y
property float z
end_header
0.142408 -0.070589 -0.079269
0.401166 0.036604 -0.257476
-1.114236 -0.329658 0.039328
-0.223175 0.470686 -0.307301
0.370354 0.737376 -0.352812
0.358575 0.150268 -0.123669
-0.881882 0.489092 0.418626
0.323288 -0.322985 -0.886916
-0.660013 0.487914 0.151239
0.262877 -0.264835 -0.962455
0.521775 -0.261515 -0.617486
-0.044480 0.671360 -0.329603
0.309370 0.251823 -0.685676
0.037296 -0.566479 -0.366780
-0.411013 0.259675 -0.283913
0.205058 0.001096 -0.958201
0.176475 0.090276 -0.952048
-1.003516 -0.355655 -0.170144
-0.764183 -0.052695 -0.172812
-0.000645 0.711642 -0.065162
-0.899938 -0.262218 0.370022
-0.244591 -0.529997 -0.480979
-0.314181 -0.348932 -0.736930
0.444202 0.541513 -0.351025
-0.716581 0.490704 0.211062
-0.110726 0.647389 0.049252
0.064165 -0.506830 -0.346682
0.451735 0.394831 -0.415709
-0.881925 0.186571 0.624678
-0.793382 -0.677262 0.304802
-0.230008 0.119157 -0.580031
0.530559 0.519102 -0.243149
0.060338 0.588620 -0.502171
-0.066727 -0.101510 -0.921872
-0.022250 -0.090118 -0.958098
-0.559835 -0.494774 -0.477968
-0.230269 0.184852 -0.527497
-0.734791 -0.703658 0.310293
-0.059510 -0.376947 -0.740012
0.077177 -0.121404 -0.053273
-0.542530 -0.058063 0.628172
0.216198 0.633463 -0.619060
-0.962219 -0.040742 0.397335
0.002270 -0.115201 -1.003024
0.107557 0.546617 -0.583673
-0.063126 0.047055 -0.807335
-0.947612 0.054252 0.099064
0.589392 0.444696 -0.199933
-0.288001 -0.412703 -0.647075
0.507579 0.148988 -0.276420
0.479629 0.537320 0.061013
-0.915442 -0.689428 0.129882
-0.006092 0.350747 0.407179
-1.011218 0.188003 0.270252
-0.477926 -0.678539 -0.220174
-1.071495 -0.556130 -0.260426
-1.070837 -0.658991 -0.069297
-0.381474 0.313616 0.590903
0.083223 -0.211037 -1.010679
0.501670 -0.071755 -0.446032
-0.047979 -0.269278 -0.043481
-1.097195 -0.200365 0.129073
-0.311929 -0.607843 -0.044074
-0.648160 0.037537 0.811796
-0.944650 0.050800 0.093302
-0.060129 -0.019971 -0.863715
-0.342631 0.520573 0.277633
-0.910256 -0.657568 0.153361
0.225420 0.643280 -0.003491
0.089031 -0.161951 -1.084385
-0.501555 -0.537679 -0.424631
-1.087427 0.032582 0.261830
-0.091799 0.537225 0.209076
-0.046041 0.377162 -0.562088
0.505348 -0.213501 -0.653054
0.156048 0.369589 0.257063
0.209905 -0.479141 -0.635829
-0.271909 -0.718449 -0.197130
0.301954 0.851168 -0.324736
0.288962 0.594638 -0.538374
-0.879838 0.313049 0.235959
-0.825037 -0.058780 -0.115686
-0.806956 -0.434971 -0.433408
0.229605 0.291265 -0.775721
0.238234 0.158305 -0.831866
-0.947950 -0.051789 0.015039
0.467333 -0.109067 -0.440755
0.579260 0.507569 -0.064113
0.398634 0.682278 -0.091556
-0.875236 0.495254 0.408338
0.379550 0.769146 -0.323837
0.326462 0.602207 0.039647
-0.001283 -0.344011 -0.150491
-0.644397 0.018715 -0.237974
0.226132 0.573152 -0.636207
-0.018262 -0.382119 -0.163522
0.066531 0.491799 0.248636
-0.671127 0.070298 0.856482
-0.850531 -0.235658 0.451902
0.177870 -0.063026 -0.109362
-0.031769 0.025191 -0.856662
-0.862304 0.156545 0.636423
-0.983713 0.291476 0.324570
-0.362684 -0.102181 0.409932
0.303565 -0.222641 -0.936604
-0.154020 0.759507 -0.147925
0.278754 0.279351 0.060315
0.111927 -0.448244 -0.664436
-0.099593 0.603570 -0.327418
-0.062795 -0.121804 0.088942
-0.920863 0.388154 0.574920
-0.878077 0.161381 0.617099
-0.686306 -0.106205 0.736275
0.478202 0.094739 -0.532765
0.588010 0.488582 -0.179374
0.221409 0.179657 -0.844188
0.063628 0.140914 0.169232
-0.869306 -0.210678 -0.191462
-0.250499 -0.058965 0.330078
-0.665086 -0.323617 -0.489277
-0.723098 -0.119185 -0.267550
0.445630 0.316204 -0.464400
-0.221600 -0.125749 -0.783450
-0.226072 0.527363 0.247179
0.070809 0.153171 0.171673
-0.988562 0.154125 0.220227
-0.834620 -0.871888 0.128570
-0.118325 -0.183384 -0.934470
-1.159402 -0.545865 -0.133782
0.508517 0.643728 -0.209809
0.476104 0.481794 -0.337508
-0.895927 -0.280133 -0.219615
-0.637731 0.125841 0.871435
-0.642114 0.252723 0.726690
-0.885424 0.177476 0.133780
-0.192035 0.464427 -0.343991
-0.023774 -0.294837 -0.088465
-0.522634 -0.564094 -0.381825
0.115756 0.297387 -0.790318
-0.001274 -0.456487 -0.239990
0.504039 -0.281400 -0.689624
-0.768519 0.073855 -0.067708
-1.032952 0.274006 0.360810
-0.390062 0.320010 0.582936
0.209128 -0.449681 -0.679319
0.265568 0.041637 -0.115391
-0.631209 0.248738 0.730682
-0.297185 -0.270242 -0.821444
0.411455 0.661770 -0.334715
-0.190298 0.486080 0.302052
-0.961889 -0.108038 -0.015520
-0.773768 -0.090285 0.632416
-0.810633 -0.596649 0.322231
-0.900907 0.348469 0.630196
-0.377497 0.523327 -0.108272
-0.596418 -0.058921 -0.348601
0.423532 0.745479 -0.275169
-1.074927 0.011450 0.268287
-0.249905 -0.624644 -0.339891
-0.166586 0.675731 0.017058
-0.164545 -0.402364 -0.683992
-0.605343 -0.285326 0.511316
-0.350644 0.516353 -0.141165
0.269296 0.512154 -0.607781
-0.867499 0.122633 0.611881
-0.809462 -0.494388 -0.434852
-0.744915 -0.015696 -0.162995
0.494922 0.134841 -0.274786
-0.967894 -0.639324 0.083043
0.261541 0.341872 -0.705677
-0.847198 0.466005 0.446743
0.513219 0.621498 -0.021604
-0.524421 -0.780206 0.035169
-0.113164 -0.251665 0.036911
-0.005549 -0.137081 -1.012471
0.247026 0.812676 -0.484705
0.392757 0.767217 -0.216308
-0.063280 0.022924 0.204587
0.545122 -0.055995 -0.477741
-0.361271 -0.635549 -0.015873
-0.047720 -0.384467 -0.730941
0.394925 0.055421 -0.667986
0.316420 0.033266 -0.787824
0.041067 -0.272777 -0.911875
0.301203 0.242729 0.008318
0.459947 0.584461 -0.307277
0.377853 0.248556 -0.065099
0.521512 -0.322429 -0.686480
-0.409692 -0.583694 -0.372567
0.318934 0.071994 -0.764523
-0.869147 0.463775 0.453887
0.138836 -0.352852 -0.810406
-0.605658 0.267599 -0.079401
0.388044 0.237989 -0.584028
-0.013000 0.012179 0.144837
-0.821517 0.283131 0.713058
0.056482 0.505511 0.230088
-0.344342 0.185507 0.620149
-0.855315 -0.287834 0.418579
-1.009602 -0.711841 -0.077812
0.106040 -0.407637 -0.723538
-0.018125 -0.285071 -0.086447
-0.315093 0.424671 -0.250312
0.211499 0.554217 -0.666125
-0.527136 -0.343986 -0.645958
-0.314015 -0.237558 0.252662
-0.269656 0.605032 0.139790
-0.200746 0.700294 -0.147456
0.421091 -0.183836 -0.754313
0.586824 0.294211 -0.241570
-0.777348 -0.832602 0.060370
0.436181 0.552295 0.094358
0.310579 0.347896 0.082444
-0.451145 0.584867 0.015687
-0.458304 -0.123854 -0.540906
0.457035 0.179806 -0.200431
-0.224707 0.591627 0.151776
0.255731 -0.277068 -0.358947
-0.141557 0.456825 -0.401441
-0.358679 0.447344 -0.187889
-0.574859 0.512576 0.330118
0.202180 -0.388726 -0.393255
0.312040 0.450518 -0.580262
-0.797044 0.538090 0.331220
0.358143 -0.419615 -0.576649
0.163945 -0.101211 -1.067398
-0.253664 -0.134798 0.272966
0.525871 -0.057523 -0.459353
-0.349182 -0.128582 -0.655787
-1.025123 0.379758 0.525676
0.142540 -0.080361 -0.087178
-0.970552 -0.318644 -0.174265
0.169063 -0.272099 -0.935279
0.364518 0.650339 -0.405436
-0.263928 -0.399074 -0.671471
-0.443659 -0.585282 -0.364271
0.375707 0.282134 -0.578479
-0.047033 -0.395989 -0.713998
0.175374 0.381974 -0.783727
0.134560 0.385978 -0.738979
0.200989 0.040897 -0.943448
-0.609800 0.160615 -0.160303
-0.345988 0.413586 -0.227671
-0.043758 -0.417141 -0.165424
-0.205733 -0.281033 -0.856455
0.365096 -0.020572 -0.748115
-0.707845 -0.140395 0.697871
-0.027029 -0.542364 -0.500741
0.160854 -0.373922 -0.339394
-1.125334 -0.481174 -0.145964
-0.199649 -0.127160 -0.806925
-0.689887 -0.145044 -0.321944
-0.520488 0.418126 0.460468
-0.000665 0.583278 -0.444302
-0.489536 0.295225 0.637049
-1.100339 -0.286473 0.080643
-0.954097 -0.096766 0.379877
-0.614731 0.199192 -0.124589
-0.204394 0.556134 -0.258440
-0.500514 0.462741 -0.031209
-0.303165 -0.502001 -0.512185
-0.224575 0.690559 -0.130937
0.066862 -0.161211 -0.074442
0.260697 -0.459021 -0.674513
0.330112 -0.485885 -0.600831
-0.085414 0.042005 -0.788657
-0.565916 -0.425047 0.360000
-0.705229 -0.549330 -0.371734
-0.539084 0.246737 0.717522
-0.557756 -0.547724 0.254084
-0.602392 -0.198963 -0.453940
0.010901 0.044948 0.146571
-0.426063 -0.463971 0.186619
-0.135597 -0.086720 0.190990
-0.302777 0.474475 -0.223228
0.122899 0.255993 0.200438
0.329955 0.847030 -0.323508
-0.352819 -0.593162 -0.368499
0.480090 0.245242 -0.453103
0.167780 0.491866 -0.688559
0.022377 0.097305 -0.854421
0.306005 0.029467 -0.804164
0.362511 0.778556 -0.227806
-0.541631 -0.204707 0.510581
-0.881650 0.133195 0.597731
-0.908415 -0.204815 0.387696
-0.131033 -0.100916 0.175048
-0.402829 -0.567388 0.080677
0.107050 -0.546527 -0.518040
0.458038 0.260456 -0.475791
0.105811 -0.441213 -0.673777
-0.638491 0.418843 0.074367
0.176251 -0.402705 -0.377973
-0.873450 -0.016886 0.532229
0.611735 0.600967 -0.022872
0.079412 0.212743 -0.820654
0.517142 0.667102 -0.089823
-1.092691 -0.493562 -0.014808
-0.773341 -0.398238 0.475348
-0.439336 -0.064081 -0.512663
-0.163356 0.511858 -0.335458
-0.977433 -0.619761 0.079874
-0.024739 -0.234398 -0.957191
0.250587 -0.016549 -0.904311
0.250839 0.165240 -0.810895
0.046954 0.850316 -0.278846
-0.629550 0.285520 -0.040814
-0.684178 0.468467 0.414568
-0.756469 0.022493 0.714062
-0.480705 0.421920 -0.083858
-0.749048 -0.728917 -0.098123
-0.890825 -0.496600 0.262624
-0.731607 -0.010969 0.731291
-0.157121 -0.098710 0.203369
-0.776437 0.203555 0.779161
0.336912 0.108240 -0.721120
0.527688 -0.062347 -0.544794
0.326458 -0.007979 -0.216873
0.194423 0.726199 -0.120857
-0.222843 -0.019273 0.333496
0.116256 -0.029585 -1.050978
-0.005605 0.539637 -0.473993
-0.544744 -0.539764 0.247169
-0.156986 0.593214 0.137572
-0.369670 -0.466599 -0.552971
0.524816 0.503161 -0.259247
-1.008457 -0.234889 0.234037
-0.106110 -0.426235 -0.109166
-0.556846 0.138192 -0.232067
0.025715 0.378649 -0.633974
0.012235 -0.520295 -0.540292
-0.532139 -0.491871 0.272437
-0.540046 -0.093029 0.597822
-0.725430 0.179659 -0.027405
-0.838290 0.307451 0.189195
0.317937 0.668726 -0.460399
0.248454 -0.377210 -0.793521
-0.525454 0.400793 -0.055100
-0.809280 -0.277818 -0.306005
0.314791 0.676218 -0.460912
-1.039991 -0.049835 0.285195
-0.748070 -0.803366 0.011953
-0.671693 0.430974 0.467904
-0.535114 0.306847 -0.120010
0.360059 0.737558 -0.366946
-0.858365 -0.125527 -0.134854
-0.896004 -0.340324 0.335472
-0.093417 0.267878 -0.600796
0.413235 -0.362123 -0.844700
-0.813576 -0.726354 0.251760
-0.050044 -0.150516 0.053114
-0.545197 0.137121 -0.244781
0.045465 -0.447231 -0.654304
-0.654991 -0.785135 -0.031334
0.039532 -0.519480 -0.331662
-0.929852 -0.214153 0.353287
0.077382 -0.355878 -0.795171
0.578921 0.506940 -0.182537
-0.638757 0.068909 -0.203781
-0.494914 0.112139 -0.315861
-1.002086 0.207350 0.469249
0.103522 0.628930 0.039091
-0.420701 -0.160652 0.422489
-0.133622 -0.222699 -0.950175
-0.007220 -0.453144 -0.231276
-0.350488 -0.067690 0.424955
0.261428 0.336110 0.123117
-0.845474 0.256057 0.710628
-0.069077 -0.448523 -0.632346
0.414244 0.029827 -0.654388
-0.694084 -0.107982 -0.288182
-1.072039 -0.024789 0.162881
-0.370297 0.665222 0.068272
-0.898821 -0.641235 -0.201756
-0.170016 0.534235 0.227192
-0.491283 -0.721110 -0.154796
-0.385293 -0.483244 -0.525588
-0.186167 -0.070039 -0.775206
-0.659953 -0.811284 0.008257
0.322037 -0.446699 -0.703495
-0.729051 -0.654718 -0.211501
-0.451058 -0.606732 -0.331212
0.030918 -0.485270 -0.595429
-1.120396 -0.393590 -0.001916
-0.851201 0.196786 0.672369
-0.015453 0.468161 0.297988
-0.156881 0.067857 0.335651
-0.451636 -0.506210 0.179052
-0.661946 -0.708893 -0.143020
-0.266914 0.088614 -0.566752
-1.007353 -0.596860 -0.248474
0.177957 0.742948 -0.499154
-0.063440 0.046389 -0.807545
-1.070048 -0.075001 0.230772
0.154899 0.523003 -0.650669
-1.025694 -0.113083 0.045438
-0.955929 0.423000 0.400923
-0.140807 -0.518881 -0.515603
-0.950492 0.160305 0.186376
-0.176436 0.454874 -0.367476
0.515286 -0.230728 -0.648138
-0.082664 0.367996 0.458080
0.572816 0.649530 -0.073544
0.522645 0.704658 -0.159090
0.285843 0.288148 0.060095
0.002702 -0.547582 -0.498216
0.309901 0.771127 -0.207598
0.203170 0.364368 -0.774830
-0.527402 -0.562708 -0.383044
0.443071 0.024422 -0.309840
0.130427 -0.143155 -1.119464
0.470024 0.126142 -0.256354
-0.426567 -0.336960 -0.734989
0.418967 0.336981 -0.490612
-0.328742 0.684820 0.031977
-0.357323 -0.453355 -0.574745
-0.721669 -0.165477 0.665925
-0.686123 -0.875024 0.124389
-0.872829 -0.488606 0.291586
0.406615 -0.427482 -0.746754
0.030506 0.395941 0.396892
0.320096 0.409066 -0.590350
-0.662007 -0.690852 -0.169726
-0.499772 0.182457 0.775997
-0.732230 0.517860 0.248603
-0.170080 -0.498096 -0.101200
-0.044846 0.435758 -0.516684
0.283640 -0.469746 -0.662646
-0.787710 -0.572788 0.366127
0.194210 0.085289 -0.930090
0.229895 0.053000 -0.897303
-0.695651 -0.446168 -0.526177
0.487577 0.194118 -0.468930
0.444656 -0.288346 -0.775249
-0.306087 -0.646627 -0.297505
-0.831448 -0.362975 0.413095
-0.244381 -0.589753 -0.098466
-0.086999 -0.484432 -0.174930
0.407919 -0.087926 -0.723416
0.535181 0.293526 -0.352246
-0.838807 -0.151929 0.510971
-1.034391 0.073097 0.355871
0.419513 0.772662 -0.229054
0.413925 0.040355 -0.267483
-0.958777 -0.407653 0.214248
-0.155080 0.493142 -0.358776
-0.064880 -0.508819 -0.543791
-0.548935 0.623774 0.160913
-0.486066 -0.630134 -0.290430
0.129236 -0.219888 -0.184642
-1.015780 -0.017017 0.335457
-0.807944 -0.602037 0.323190
-0.771246 -0.638647 -0.227915
-0.163608 -0.491314 -0.552434
-0.275993 -0.069383 -0.683214
0.034248 0.542482 0.179232
0.266313 -0.411887 -0.476989
-0.604919 0.335123 -0.026430
0.300430 0.799344 -0.417725
-0.938836 0.165311 0.178490
-0.846785 -0.043431 0.555492
0.371000 0.726866 -0.152748
0.284692 0.687393 -0.496789
-0.707310 0.563897 0.277299
-0.822925 0.023295 -0.052534
-0.861789 -0.410621 0.346769
0.300791 -0.314431 -0.895646
-0.087996 -0.124186 -0.918255
-0.787882 -0.502144 0.402057
-0.246028 0.370204 0.483400
-0.787332 -0.829342 0.057290
0.085467 -0.036440 0.005885
-0.898682 -0.597476 0.200121
0.262496 0.790423 -0.227877
0.237203 0.510156 0.191583
-0.488771 0.580626 0.050628
-0.246613 0.091798 -0.584891
0.612676 0.555696 -0.110926
-0.208860 0.717161 -0.125775
-0.269319 -0.661269 -0.129971
-0.747967 0.462540 0.434508
-1.026563 0.165624 0.268072
0.303691 0.698907 -0.464637
0.288009 0.563822 -0.555468
-0.606362 -0.501192 -0.460320
0.209224 -0.107039 -1.007803
0.265813 -0.310052 -0.395457
-0.446397 0.653028 0.065083
-1.048706 -0.593963 -0.005419
-0.711357 -0.063506 0.732381
-0.144679 -0.525428 -0.505230
-0.860052 -0.696807 0.202655
-0.723298 -0.732214 0.275869
-0.811612 -0.470303 0.385562
0.410541 0.009581 -0.288523
-0.374082 -0.360103 -0.709903
-0.555562 -0.762934 0.080622
-0.473038 0.493577 0.340432
0.229867 -0.299161 -0.905846
-0.536576 0.379589 -0.060644
0.063173 0.433956 -0.628113
-0.087762 0.602858 -0.340032
-0.978058 0.408116 0.555370
0.342001 0.663569 -0.053939
0.567900 0.505223 -0.198648
-0.844868 -0.585509 -0.293719
-0.838012 -0.183928 0.495687
-0.514163 -0.682014 -0.208687
-0.949680 -0.420017 -0.276174
-1.062950 -0.281300 0.134965
0.492675 -0.377838 -0.680403
0.017231 0.157357 -0.801402
0.365256 0.238284 -0.060445
-0.816592 -0.242205 0.495456
0.087228 0.617308 0.059153
0.058556 0.762068 -0.362355
-0.403517 -0.480629 0.150406
-0.729222 -0.514371 -0.419303
-0.774098 -0.093926 0.630096
-0.968725 -0.175812 -0.062482
-0.601776 -0.841900 0.043413
0.024747 0.646016 -0.420262
-0.323227 -0.599440 -0.025884
-0.138020 0.020000 0.278368
-0.391389 -0.306342 -0.754239
-0.596494 -0.236017 0.541537
-0.647979 0.371703 0.551526
0.193833 0.262516 0.133395
-0.419687 -0.560460 -0.405224
-0.138983 0.256176 -0.563705
0.150712 -0.035909 -1.052254
0.219268 0.294689 0.133092
-0.772077 -0.261539 -0.330937
-0.480127 -0.052681 0.568909
-0.943714 -0.783543 0.016838
-0.093309 -0.176876 0.076197
-0.112891 0.627896 0.078497
-0.637435 0.487784 0.377782
-0.114943 0.539099 0.210352
-1.101301 0.043365 0.248177
-0.773323 -0.322662 0.514065
-0.185324 -0.593190 -0.161337
-0.572233 -0.278986 0.482644
0.342703 -0.256060 -0.899623
-0.513178 -0.525216 0.226599
0.485867 -0.309219 -0.618875
-0.815600 -0.633343 -0.228006
-0.666327 0.339105 0.603009
-0.815741 -0.485902 -0.446320
0.634805 0.611464 -0.038012
-0.285135 -0.521853 -0.485943
0.420872 0.481884 -0.413795
0.497412 0.616191 -0.010977
-0.503019 -0.444225 -0.562767
-1.052032 0.125751 0.358446
0.463751 0.314811 -0.440069
-0.314848 0.702304 0.003655
-0.174554 -0.485139 -0.086335
-0.215251 0.520376 0.255631
-0.497086 0.351374 -0.123307
-0.017442 0.217405 0.312645
-0.030349 0.368228 0.445789
-0.222697 -0.408981 -0.664016
-0.584480 0.193822 0.803827
-0.427151 0.509246 0.309198
0.292123 -0.180960 -0.931078
-0.802815 -0.209311 -0.258083
-0.943324 -0.186731 0.348707
0.179246 -0.443133 -0.413189
-0.958284 -0.750317 -0.029815
-0.692942 -0.336445 -0.471118
-0.426991 -0.291554 -0.706220
0.190698 -0.228525 -1.003592
-0.082272 0.449001 -0.468037
0.532764 -0.192927 -0.604630
-0.664482 0.496895 0.162934
0.170591 -0.218369 -0.225546
-1.026379 0.087641 0.205838
-0.717116 0.236294 0.764145
-0.333513 -0.010829 0.452911
-0.333862 -0.525604 -0.471860
0.215338 0.372480 -0.753861
-0.337265 -0.023033 0.447021
-0.851275 0.217292 0.682766
-0.771201 -0.611688 0.369028
0.113917 -0.272831 -0.211166
0.279025 -0.174323 -0.945782
-0.685499 0.486997 0.387359
-0.235794 0.137550 0.471458
0.454997 0.327316 -0.445765
-0.276625 0.342862 0.529244
-0.626918 -0.667098 -0.211042
-0.806755 0.003964 0.635079
-0.886330 -0.137177 0.452846
-0.711980 -0.715661 0.277515
0.050837 0.312207 -0.712419
0.407793 0.282324 -0.534037
0.254091 -0.164464 -0.267685
0.540125 0.524240 -0.227298
-0.244571 -0.378625 -0.705141
0.510047 -0.144705 -0.611339
0.159031 -0.353797 -0.812542
0.082503 -0.009450 -1.000587
-0.168328 0.454912 0.344362
-0.933636 0.242240 0.581711
-0.611676 -0.770445 -0.060669
-0.653990 0.029025 -0.220003
-0.642930 -0.227228 -0.435149
-0.494298 -0.540130 0.195508
-0.667895 -0.318025 0.548996
-0.736179 0.543472 0.312598
0.285821 0.271745 -0.708022
0.306250 -0.184694 -0.913466
0.371589 0.593304 0.044934
0.134672 0.769493 -0.433957
0.560446 0.383474 -0.143689
-0.913036 -0.763914 -0.017599
0.624951 0.494000 -0.121436
-0.138018 -0.013673 0.251575
0.332286 0.538431 0.133071
-0.964684 -0.082076 0.372766
0.515850 0.234873 -0.216509
-0.103484 0.446403 0.345615
-0.650181 -0.395455 0.469352
-0.064341 -0.643830 -0.343955
-0.436681 -0.462889 0.198291
-0.084334 0.240617 -0.631734
-0.034458 -0.626811 -0.374388
-0.118513 -0.055497 -0.832528
-0.197804 -0.605173 -0.377843
0.247234 0.341620 -0.725578
-0.573400 -0.480609 -0.496570
0.005043 0.607230 -0.431057
0.287051 0.727953 -0.139665
-1.006385 -0.647436 -0.173749
-0.754579 -0.079776 -0.204139
0.035163 -0.429507 -0.678748
-0.837163 0.203103 0.695004
-0.163786 0.597912 0.131807
-0.514933 -0.408304 -0.613874
-0.833810 0.319940 0.660700
0.088729 0.426559 0.341361
-0.652419 -0.020306 -0.260852
0.051785 0.658323 -0.438003
-0.350167 0.499921 -0.154724
0.028764 0.802097 -0.204258
0.568917 0.184566 -0.361406
-0.486282 -0.674456 0.080470
0.022429 0.173393 -0.793937
-0.958947 -0.166200 -0.064792
0.477629 -0.033081 -0.598995
-0.340097 -0.752287 -0.135087
0.008419 -0.247572 -0.943486
-0.782584 -0.906332 0.197706
-0.712097 -0.096908 -0.261029
-0.052706 -0.277251 -0.045011
-0.878874 -0.360804 0.348661
-0.816873 -0.060932 0.587872
-0.943090 0.314372 0.605575
0.509793 -0.200595 -0.640302
-0.788704 -0.730643 -0.088628
-0.513395 0.030172 -0.362259
0.380745 -0.298814 -0.868936
-0.924353 0.368272 0.604974
-0.583725 -0.348411 -0.591855
-0.462496 -0.266170 0.381095
0.557824 0.108859 -0.359512
-0.767463 -0.699388 0.329296
-1.031916 -0.415383 0.109210
-0.696611 -0.822814 0.176610
0.418469 -0.257875 -0.509392
-0.522226 0.249344 -0.178885
-0.064192 0.284488 -0.617339
-0.651515 0.125780 0.885424
-0.406169 -0.017377 0.521685
0.134148 -0.121192 -0.111118
0.499888 -0.219563 -0.663703
-0.974312 -0.414837 0.189101
-0.510166 0.506796 0.013672
-0.742773 0.179661 -0.009743
-0.685873 -0.119470 -0.305685
-0.843625 0.288125 0.709531
0.439933 0.513929 -0.371045
0.082066 0.188335 0.188186
-0.772827 -0.601617 0.371938
-0.810316 0.251746 0.757011
-1.047210 0.410106 0.510689
-0.978139 -0.175650 -0.052768
0.287124 -0.444140 -0.701175
-0.507423 -0.534256 0.213546
-0.833141 -0.865832 0.119343
-0.046611 0.133783 -0.755148
-0.036019 0.720720 -0.072414
-0.161230 0.550782 -0.306653
0.423040 0.093487 -0.609642
-0.014169 0.556956 -0.451493
-0.657407 -0.643270 0.279540
-0.978625 -0.073762 0.357756
-0.896145 0.069055 0.544863
0.128131 0.677301 -0.500646
-0.164263 0.537812 0.220888
-0.697905 -0.603385 0.352512
-0.669646 0.526236 0.326477
0.044746 0.733882 -0.370718
-0.447067 -0.346936 0.301124
-0.419561 -0.132952 -0.587597
0.001852 -0.079466 -0.974166
-0.032154 0.805826 -0.199119
-0.401021 0.358775 -0.215241
-0.141873 -0.582010 -0.421932
0.169898 0.738322 -0.494628
-0.876062 -0.179600 0.445316
0.146648 -0.371331 -0.784409
0.252726 0.742847 -0.155714
-0.602242 -0.369577 -0.589839
-0.514703 0.448999 -0.027693
-0.070874 -0.280504 -0.880841
0.073216 0.471573 0.277417
0.168698 0.399904 -0.762663
0.335698 0.710031 -0.121640
-0.958706 -0.126697 0.358184
-0.879210 0.304266 0.688685
-0.246165 -0.469568 -0.570189
-1.019768 -0.295101 0.187579
-0.929546 -0.683386 0.113483
0.209644 0.396383 0.223804
0.448304 0.412822 -0.411240
0.340868 0.625582 -0.450796
-0.737056 -0.009469 0.724528
0.375043 0.624932 -0.403898
-0.138881 -0.124571 -0.866745
0.220513 -0.338168 -0.371698
-0.631265 -0.062029 -0.315589
0.570016 0.673424 -0.109612
-0.885145 0.106777 0.579377
0.208624 0.184292 -0.859484
-0.033079 0.490946 -0.484756
-0.236973 0.436893 -0.320138
0.304716 -0.321928 -0.885230
-0.119789 0.601561 0.118702
0.300939 -0.008578 -0.830642
0.145307 0.352115 0.254098
0.396550 0.101141 -0.642333
0.353233 0.234897 -0.633721
-0.429588 -0.435432 -0.588638
-0.823947 0.281787 0.154171
0.234906 0.088633 -0.046776
-0.838893 -0.441535 0.362586
-0.383645 0.401929 -0.198600
-1.001850 -0.264888 -0.099623
-0.653763 -0.605852 -0.297039
-0.803914 0.067300 -0.036882
0.544156 0.646397 -0.063889
-0.482508 -0.794211 -0.018654
-0.238199 -0.502172 -0.523302
-0.417314 -0.373200 0.249930
0.357723 0.069353 -0.712268
0.181647 0.635260 -0.588591
-0.745603 -0.451936 -0.508893
-0.574555 -0.759771 0.102479
0.347198 -0.046218 -0.268416
-0.899904 0.124400 0.568001
-0.288013 -0.662220 -0.277578
0.064951 0.609226 -0.490474
-0.022084 -0.529059 -0.521308
-0.077796 -0.188383 0.051245
-0.939815 -0.613745 0.134945
-0.967770 -0.253386 0.280798
-0.532185 -0.600219 -0.326658
-0.123479 -0.052397 -0.825004
-0.335360 0.274662 -0.349027
-0.513591 -0.569883 -0.374836
0.316814 -0.368662 -0.818142
-0.772011 -0.592148 -0.296639
0.335769 0.315314 -0.616688
-0.988453 -0.535647 -0.328691
-0.622346 0.301523 0.650965
-0.822817 0.203077 0.090396
-0.147375 0.356200 -0.475578
0.248790 0.415889 -0.685406
0.589573 0.222978 -0.301044
0.208741 0.462690 -0.716794
-0.557586 0.416369 -0.009987
-0.000976 -0.478532 -0.257833
-0.784989 -0.744730 0.281861
-0.423174 -0.784896 -0.072258
-0.959491 -0.297492 -0.168699
-0.850447 -0.518986 -0.391253
-0.769446 -0.623134 0.365593
-0.007813 -0.195200 -1.018200
0.184668 0.198288 -0.885427
-0.034976 -0.490194 -0.576606
-0.132489 -0.371043 -0.038392
-0.386464 -0.398399 0.198466
-0.611538 -0.707544 0.181692
-0.334456 0.344806 -0.294138
0.449258 0.446840 -0.392505
0.588784 0.542499 -0.046019
0.227534 -0.081155 -0.969247
-0.424722 -0.576022 -0.381297
-0.435782 -0.518077 -0.465170
-0.845746 0.251052 0.151915
-0.865988 0.255653 0.682071
-0.954850 -0.232833 -0.121980
-0.124171 0.395812 0.424152
-0.167927 0.366281 -0.446628
-0.787525 -0.775129 0.262793
-0.253923 -0.081330 0.315770
-0.377134 -0.339316 -0.740152
0.319817 -0.493281 -0.596232
0.540328 0.140725 -0.423361
-0.870791 -0.173884 0.455529
0.196111 -0.066710 -0.130868
-0.353866 0.650157 0.087706
-0.302661 0.508964 -0.195905
0.506558 -0.211689 -0.650454
-0.943173 -0.080263 -0.012481
-0.483954 -0.621727 -0.303249
-0.452672 0.321384 0.591859
0.497666 -0.372952 -0.745301
-0.323712 -0.482653 -0.537240
-0.858521 0.389307 0.274924
-1.039736 -0.484785 -0.236002
0.039685 0.810992 -0.219342
-0.307682 -0.128834 -0.698246
-0.249487 -0.152265 0.254815
-0.559330 0.522367 0.312901
-0.975547 -0.621158 0.081766
-0.432011 0.546894 -0.034010
-0.526386 0.342803 -0.100289
-0.711177 -0.578768 -0.327099
0.057308 -0.009998 -0.975366
-0.254071 -0.321753 0.124633
0.507238 0.336687 -0.368768
-0.703453 0.153355 0.854328
-0.744957 0.141667 0.790984
-0.768504 -0.501033 0.429407
0.335391 0.599120 0.042657
0.291038 0.670245 -0.054906
-0.966934 0.323798 0.333200
-0.098818 0.422438 -0.472321
-0.998347 0.354529 0.549766
-0.708587 -0.375593 -0.486334
0.305522 0.746856 -0.437558
-0.648962 -0.729165 -0.115273
-1.114023 -0.578652 -0.087852
-0.802862 -0.277648 -0.312406
0.449756 0.248428 -0.138420
-0.236374 0.452353 0.360061
-0.391541 0.273705 0.651766
-0.719657 -0.311489 0.593953
0.373284 -0.111267 -0.346735
-0.186097 -0.583987 -0.153228
-0.151539 0.617715 0.100338
0.589270 0.399214 -0.223386
-0.083633 0.036732 0.236298
0.230839 0.447026 0.242515
0.135785 0.519664 0.195251
-0.092985 0.021331 -0.797397
0.473921 0.201384 -0.484083
-0.765168 -0.146903 0.615316
-0.583378 -0.152813 -0.436583
0.068987 0.814075 -0.229035
-0.928009 -0.008853 0.460940
-0.604198 -0.559227 -0.374759
0.029342 0.266693 0.304221
0.372181 -0.315962 -0.889551
0.223327 -0.537596 -0.533235
0.172115 0.003792 -0.050339
-0.160807 -0.677388 -0.253294
-1.004652 -0.659896 0.021709
-0.919472 -0.354821 -0.255063
-0.517160 -0.420523 -0.595391
0.272320 0.674215 -0.057509
0.206212 0.864896 -0.430900
-0.987727 -0.427889 0.163879
-0.587615 -0.274167 -0.528822
0.136517 0.502404 -0.648341
0.013013 0.011236 -0.913366
-1.157805 -0.619048 -0.169041
-0.204201 -0.434071 -0.630098
-1.037522 0.170741 0.283302
-0.745422 0.128499 0.783600
0.412738 0.234947 -0.551458
0.047064 0.173231 0.211812
-0.537423 -0.534239 -0.423449
-0.778230 -0.227498 0.556002
0.417294 0.664958 -0.069173
0.186705 0.753547 -0.160004
-0.457200 0.238297 -0.253890
-0.871928 -0.368178 0.354486
-0.013462 -0.614954 -0.353662
-0.617475 -0.523194 -0.425794
-0.140154 -0.190350 0.113180
-0.847492 0.327457 0.214484
-0.658875 0.225202 0.770378
-0.117481 0.151320 -0.669029
0.505573 0.154242 -0.270196
-0.794823 -0.172041 -0.236567
0.549934 -0.149436 -0.558635
0.030015 0.593059 -0.467760
0.245494 0.570927 -0.610588
-1.137496 -0.640270 -0.161415
-0.707641 -0.859139 0.087468
-0.974975 -0.676789 0.054076
0.133704 -0.003155 -1.047715
0.193207 -0.288169 -0.304111
-0.993341 -0.023568 0.363115
0.218299 0.831208 -0.280538
-0.030286 -0.126091 -0.978537
-0.139413 0.619389 -0.274283
-0.708379 -0.552425 0.403725
-0.710780 -0.274294 -0.403505
-0.842685 0.219517 0.123708
-0.511141 -0.488146 -0.496304
-0.414626 0.016614 -0.473622
-0.517620 -0.655157 -0.247853
-0.733839 -0.274897 0.593086
0.006748 -0.413019 -0.698192
-0.317278 -0.431300 -0.614412
-0.825586 0.052641 0.633974
0.341314 0.102764 -0.717840
-0.821343 -0.182263 0.519578
-0.188959 0.720634 -0.045521
-0.644180 0.169464 0.850346
0.027052 0.216065 0.266271
0.569588 0.028053 -0.440606
-0.538892 -0.099509 0.591491
-0.757613 -0.554971 -0.354213
-0.362736 -0.072591 -0.597436
-0.479231 0.445041 0.413390
-0.298263 0.569661 -0.152091
-1.034077 -0.590419 -0.253335
0.160839 -0.281559 -0.265892
-0.706870 -0.011914 0.764995
-0.027951 -0.487257 -0.237307
-0.616193 -0.651583 -0.235895
0.376399 0.121485 -0.659767
0.510446 0.463342 -0.299493
-0.888948 0.332237 0.652140
-0.006354 -0.016074 -0.915373
0.364720 -0.441461 -0.600727
-0.832448 0.224848 0.712653
-0.025862 -0.472649 -0.227812
0.475211 0.527316 -0.315437
-0.216319 -0.546718 -0.461165
-0.122502 0.557013 -0.341132
0.313822 -0.490961 -0.636512
0.245412 0.003246 -0.901329
-0.817609 -0.763411 -0.035045
-0.785743 -0.448743 0.432351
-0.710261 -0.557566 -0.358657
-0.561889 0.301895 0.639834
0.593444 0.253222 -0.292359
0.183994 -0.374275 -0.363239
-0.156124 -0.361941 -0.745326
-0.562814 -0.574150 -0.359902
-0.029264 -0.317124 -0.833895
0.375102 -0.160040 -0.387391
-0.914265 -0.281528 0.340336
-0.468683 0.376183 0.513513
-0.928203 0.143936 0.538893
-0.125267 0.376704 -0.481776
-0.457169 -0.774589 -0.081571
-0.098689 0.297980 -0.571476
-0.329976 -0.490995 -0.523791
-0.370492 0.363087 0.515722
-0.005721 -0.262914 -0.081449
0.546618 0.086502 -0.442428
-0.404986 0.243365 -0.303027
-1.070952 -0.493738 -0.211337
0.305224 0.709633 -0.457028
-0.811171 0.284177 0.143063
0.302988 -0.493997 -0.579665
0.073023 -0.199876 -1.025422
-1.052917 0.052031 0.204530
-0.090657 0.256108 -0.612971
-0.443885 0.066156 0.626554
0.300251 0.865440 -0.384133
-0.366497 -0.755989 -0.106378
-0.509202 0.020438 -0.374272
0.415766 0.752518 -0.282298
-0.084716 0.608934 0.101646
-0.101858 -0.005797 0.221018
0.096074 -0.259985 -0.940443
-0.389339 0.102700 0.600086
-0.397455 -0.490956 -0.512040
-1.102554 -0.264916 0.002901
-0.308587 0.023654 -0.576001
0.174261 0.682704 -0.052920
-0.178113 0.547955 -0.291710
0.128574 0.071139 0.047582
-0.469653 -0.600012 -0.337908
-0.543797 -0.625968 -0.286496
-0.636539 -0.655940 -0.225882
-0.601193 0.578242 0.237485
-1.073947 -0.392836 -0.128007
-0.897202 0.158034 0.588955
-1.142535 -0.640073 -0.158701
0.296150 0.357743 -0.649720
-0.340752 -0.559680 0.023597
0.011774 -0.436938 -0.663650
0.297810 0.557976 0.110161
-1.019543 -0.481555 0.092433
0.466270 -0.347153 -0.775485
-0.091426 0.187190 -0.667021
0.518276 0.513465 -0.263010
-1.101177 -0.452601 -0.005565
-0.981058 -0.578285 0.096098
0.185690 0.004031 -0.983465
0.385722 0.057430 -0.679677
-0.837725 0.269952 0.728451
0.093146 -0.530843 -0.395299
-1.021737 0.318777 0.499137
-0.052775 0.674001 -0.319056
-0.045341 0.453383 0.325103
0.135489 -0.111554 -0.104816
-0.961222 -0.462720 0.182677
-0.202969 -0.416735 -0.655987
-0.151494 -0.064649 -0.806226
0.279217 0.599773 0.051521
-1.074115 -0.511636 0.001611
-0.792633 -0.892013 0.151025
-0.136744 0.485400 0.293686
-0.276450 -0.397373 -0.671798
-0.116406 0.352562 0.486840
-0.334227 0.340915 -0.297467
-0.011580 0.764861 -0.288713
0.214615 -0.099078 -0.175463
-0.572768 0.001624 0.706451
0.067649 0.373005 -0.681166
0.161235 0.756948 -0.160584
-0.670594 -0.211820 0.636245
0.301030 0.547990 -0.545578
-1.015542 0.103449 0.207381
-0.784973 -0.117232 -0.202989
-0.665238 -0.044886 0.763609
0.141553 0.530536 0.178142
-0.457411 -0.407512 -0.625114
-0.606359 0.390130 0.018802
-0.293431 -0.119386 0.325723
-0.109925 -0.223915 -0.957806
-0.961221 0.187094 0.218616
-0.146630 0.668479 0.024306
-0.631293 -0.651918 -0.232756
-0.951580 -0.602232 0.124578
0.543337 0.324986 -0.324868
-0.843045 -0.449315 0.352865
-0.588410 0.231045 0.749393
0.095522 0.496658 0.236366
-0.884810 0.322997 0.665100
-0.077847 0.720431 -0.256583
-0.230224 0.190266 -0.523235
-1.106963 -0.110272 0.161696
-0.676557 0.277776 0.000892
-0.956177 -0.527769 -0.355290
0.390601 0.612426 -0.388799
-0.376779 0.330203 0.565519
-0.387917 -0.607298 -0.341425
-1.084331 -0.562501 -0.038548
0.182926 0.464607 -0.725671
0.329967 -0.213241 -0.383758
-0.239905 -0.125314 0.266501
0.229478 0.634517 0.008775
-0.394133 0.339032 -0.237963
0.452108 0.050307 -0.591575
-0.437585 0.138603 0.677781
-0.838951 -0.633397 0.264281
0.125457 0.611235 0.061456
-1.052549 -0.039665 0.273046
-0.854174 0.125712 0.631874
-1.121127 -0.337865 0.025603
-0.867755 -0.532120 -0.368775
-0.987776 0.000709 0.383234
-0.087624 -0.265894 -0.899545
0.367122 -0.416633 -0.755909
-0.582735 0.289174 0.662320
0.098882 -0.561068 -0.425188
0.183504 -0.044113 -1.011134
0.417955 0.676765 -0.318055
-0.959058 -0.245255 0.297002
-0.628961 -0.793263 -0.023853
-0.942013 -0.643432 -0.190943
-0.257840 0.076947 0.445689
0.204277 0.257795 0.119004
0.067658 -0.182765 -1.049822
-1.035942 0.241694 0.338146
-0.925115 -0.680619 0.121023
-0.631870 0.232290 0.755155
-1.087816 -0.588196 -0.247223
-0.731476 -0.498740 -0.442056
-0.861094 0.466853 0.447921
-0.276003 0.167180 0.535977
0.033342 -0.436027 -0.258962
0.127116 -0.120467 -1.128154
-0.432229 -0.566159 0.111594
-0.088181 0.298492 0.449195
0.494653 0.375281 -0.083211
-0.220732 0.267436 0.559462
-0.606237 -0.838127 0.072399
0.243452 0.365937 0.165154
0.367488 0.643028 -0.027981
-0.675063 0.390411 0.528562
-0.084610 -0.618228 -0.378321
0.474546 0.348070 -0.408122
-0.978377 0.062429 0.427822
-0.448944 -0.075805 -0.512208
-0.003827 0.498447 0.251105
-0.050532 0.362458 0.460657
0.121333 -0.499897 -0.589592
0.386181 0.326097 -0.541495
-0.906518 -0.059364 -0.033178
-1.028559 -0.085851 0.282555
0.464585 0.296381 -0.448351
0.215986 0.014302 -0.936337
0.061633 -0.354653 -0.223026
0.467346 0.641554 -0.267822
0.005944 0.444914 0.328668
-0.548806 0.343613 0.575766
-0.446150 0.401493 -0.135298
-0.993166 -0.578430 0.079290
-0.503302 -0.157565 0.509058
0.362132 0.587768 0.054787
0.316825 0.230945 -0.686062
-0.327034 0.143940 -0.461513
-0.628083 -0.674319 -0.200145
-0.753056 -0.859527 0.095990
-0.288887 0.279790 0.624790
-0.460656 0.230768 -0.256362
0.261130 0.855771 -0.443150
0.389623 0.440193 0.075388
-0.276832 0.408490 0.432095
-0.204249 0.233422 0.515614
-0.776998 0.109784 0.730380
-0.392886 -0.422963 0.185462
0.202189 -0.205886 -1.039128
-1.036130 -0.021320 0.305130
0.308696 0.649927 -0.027909
-0.755168 -0.503895 0.446371
-0.757129 -0.625717 0.381295
-0.471211 -0.780783 -0.069942
0.326259 0.637638 -0.012785
0.170369 0.494640 0.226256
0.074625 -0.172905 -1.065642
-0.102265 0.765398 -0.126981
-0.201984 0.143196 -0.589443
-0.361663 -0.603055 0.010380
0.266199 0.781901 -0.215905
-0.978331 -0.489624 0.145259
0.308007 -0.174553 -0.905846
-0.185888 0.366640 -0.428054
-0.494386 0.354004 0.550854
0.433705 0.605108 -0.332973
0.160194 0.561741 -0.625240
-0.003299 -0.619368 -0.367522
-0.206595 -0.438696 -0.622831
0.118074 -0.315527 -0.249370
-1.146811 -0.451059 -0.067843
0.424589 0.624851 -0.011058
-0.375840 0.407080 0.451511
0.447662 -0.387458 -0.813208
-0.090833 -0.441288 -0.639252
0.072567 0.093061 0.122056
0.046482 0.709436 -0.070143
0.253533 0.188365 0.013605
0.321911 -0.499590 -0.625150
-0.246788 0.695948 -0.104030
-0.919848 -0.521852 -0.374863
-0.660538 0.330049 0.615406
-1.150472 -0.489451 -0.092559
-1.067176 -0.494274 0.020090
0.523463 -0.284321 -0.664274
0.266222 0.674781 -0.528772
-0.997089 0.197810 0.263667
0.605179 0.459472 -0.128774
-0.497615 0.214760 0.757618
0.464515 0.536375 -0.325581
-0.726112 0.140219 0.816288
-0.852900 -0.800751 0.159325
-0.786337 0.195103 0.761153
-0.566249 0.344763 -0.058137
-0.464675 -0.680914 -0.218976
0.392314 -0.214703 -0.448410
-0.976971 -0.412082 -0.242070
-0.031601 -0.614234 -0.334617
-0.001548 0.468720 0.294726
0.054200 -0.211701 -0.101719
0.176572 -0.161760 -0.186597
-0.940302 0.358697 0.621945
0.309642 0.625330 -0.494080
-0.293101 -0.131569 0.315693
-0.233506 -0.698673 -0.196200
0.224340 -0.271300 -0.322392
0.445691 0.764796 -0.221987
-1.095806 0.071226 0.270036
-0.641028 -0.388500 -0.565400
-0.050222 0.478838 0.288262
-0.518870 0.286406 -0.152815
-0.645207 -0.124871 -0.351391
-0.338865 0.163146 0.596780
-0.595434 0.406864 0.020992
-0.586648 0.501014 0.086954
-0.817009 0.319336 0.658654
-0.861707 -0.280971 -0.255128
-0.959445 -0.072111 0.385108
-0.823656 0.038462 -0.039724
0.192833 -0.489983 -0.464301
0.148686 -0.362225 -0.798251
-0.788274 -0.109330 0.602618
0.268224 0.748640 -0.167004
0.194719 0.334431 -0.801836
-0.057351 -0.498205 -0.560826
0.035893 0.578778 -0.485109
-0.346085 0.229420 -0.374102
0.255718 0.503203 0.198638
-0.133650 0.133192 0.363977
0.377621 0.757584 -0.332422
0.250789 0.452298 -0.664003
-0.836485 -0.703123 -0.121018
0.322870 -0.382792 -0.798277
-0.781683 -0.085577 0.623887
0.032812 0.476086 -0.563677
0.399226 -0.102603 -0.742943
-0.008050 0.489207 0.265526
-0.489325 0.225916 0.739648
0.524875 -0.338779 -0.690204
0.198037 0.320800 0.175487
-0.795028 0.260455 0.107751
-0.291571 0.670998 0.045941
-0.184841 -0.155728 0.186230
-0.543261 -0.031113 0.650359
0.036187 0.708910 -0.067562
0.149436 0.108224 -0.975119
-0.597450 0.059415 -0.253398
-0.749127 0.135417 0.782021
-0.286956 0.250467 0.613397
0.159456 -0.415618 -0.371146
-0.503021 0.374851 0.521494
0.199550 0.293352 0.152108
-0.536809 -0.635038 -0.274287
-0.359382 0.177692 -0.401717
-0.276547 -0.411380 -0.651039
-0.384240 0.255150 -0.314776
-0.208738 0.678280 -0.156834
0.103764 -0.212941 -1.011455
0.228647 -0.090459 -0.972473
-0.481523 -0.297297 -0.655260
-1.101006 -0.658625 -0.140620
-0.608571 -0.545368 -0.394517
-0.458358 0.572909 0.013518
-0.343915 0.307775 0.592979
0.054960 -0.338598 -0.203457
0.347596 -0.099937 -0.812932
0.069079 0.666626 -0.449008
0.097339 0.188812 -0.857950
-0.408308 0.289553 -0.262896
-0.949491 -0.160729 0.353497
0.213298 -0.444069 -0.448610
0.072361 0.789859 -0.193766
-0.127595 -0.345370 -0.022948
-0.832691 -0.129846 0.530729
0.023360 0.028317 -0.910312
-0.574686 -0.602335 0.227874
-1.062264 0.302063 0.412982
-0.182701 -0.385756 0.001034
0.170709 0.735677 -0.497557
-0.564299 0.402233 0.491671
-0.724012 -0.606321 -0.284051
-0.223259 -0.638944 -0.323378
-0.303962 0.304449 0.590911
-0.269838 0.622042 -0.139361
-1.133697 -0.396067 -0.069734
-0.611325 0.409310 0.039119
-0.642004 -0.419445 0.441938
-0.858406 -0.427159 0.342978
0.455341 -0.308939 -0.587568
-0.191200 0.099061 -0.635540
-0.316626 0.347159 -0.310423
0.079026 0.093499 -0.915135
-0.193517 0.409102 0.416609
-0.866542 0.126685 0.615279
0.103475 0.510436 -0.608303
-1.080862 -0.609535 -0.216839
-0.800769 0.130550 0.010239
0.319828 0.376594 -0.607346
-0.662317 -0.700513 0.238994
-0.413458 -0.536626 -0.441608
-0.597013 -0.321858 -0.557196
0.504089 -0.029103 -0.414560
-0.744697 -0.205107 0.613810
0.299945 0.804642 -0.255487
0.155922 -0.196134 -1.045471
-0.514197 -0.646781 -0.260856
-0.195444 0.657814 0.048641
-0.619254 0.206019 0.791850
0.374249 0.647810 -0.036247
-0.110578 -0.360633 -0.755234
-1.097978 -0.336098 -0.058393
-0.677029 0.167039 0.859685
-0.028737 0.227116 0.331874
-0.786058 -0.127931 0.596159
0.446500 0.453296 -0.393012
0.313219 -0.478576 -0.654747
-0.249499 0.319433 0.559192
-0.100124 -0.317966 -0.029119
0.309728 0.260549 -0.680714
-0.228230 0.564479 -0.227529
-0.555480 0.601684 0.194771
-0.429687 -0.455583 0.196982
-0.979997 -0.600770 -0.247471
-0.334783 -0.227789 0.281583
-0.311914 0.197852 -0.434015
-1.024256 -0.477379 0.088056
-0.005490 0.241470 0.319622
0.449274 -0.119961 -0.682662
-0.436566 -0.065768 0.514138
-1.042588 0.090546 0.353475
-0.877175 -0.265171 -0.226806
0.334164 0.048211 -0.180012
-0.319495 -0.534347 -0.461428
-0.925187 -0.681840 -0.137012
0.372277 0.008557 -0.723278
0.396885 0.793439 -0.255863
-0.317709 0.194840 -0.430509
0.293122 -0.352936 -0.837283
0.148987 -0.443765 -0.677554
-0.678597 -0.800614 0.175930
0.217928 0.770086 -0.189960
0.088993 -0.562518 -0.416271
0.491556 -0.409364 -0.772388
0.057716 -0.503742 -0.572764
0.500900 -0.001423 -0.550626
-0.676516 0.065515 0.846586
-0.540205 0.247987 0.715868
-0.595805 0.389657 0.515808
-0.683996 0.330172 0.619329
-0.509131 0.413710 0.465019
-1.049291 0.349610 0.476841
-0.125270 0.768907 -0.128152
0.256741 0.847135 -0.453637
-0.087850 -0.550151 -0.478564
-0.439238 0.588968 0.006825
-0.013354 0.710288 -0.060932
0.057851 -0.045040 0.027164
0.342183 -0.212693 -0.878140
-0.147772 -0.674930 -0.283300
-0.884603 -0.826253 0.069740
0.273374 -0.467734 -0.663829
-0.120800 -0.435915 -0.101909
0.365582 0.429140 0.091076
-0.231643 0.038371 -0.642643
0.187987 0.438222 -0.751818
0.407460 0.333624 -0.508234
-0.786938 -0.107401 0.605452
0.061311 0.762324 -0.364956
-0.360573 -0.275166 0.270149
0.106083 0.605622 0.073160
-0.450121 0.090043 -0.379055
-0.170924 -0.575224 -0.161706
0.328738 0.654533 -0.038237
-1.175316 -0.615069 -0.192114
-0.892049 -0.433378 0.293299
0.548326 0.498500 -0.229141
-0.258280 0.207903 0.550330
-0.948998 0.387553 0.580736
0.575792 0.580316 -0.002701
-0.214065 0.290971 0.571399
-0.542336 0.532042 0.295599
-0.233210 0.098545 -0.593171
-0.828280 0.298642 0.171994
-0.703000 -0.700958 0.280069
-0.178387 -0.085922 0.235198
-0.315601 -0.613442 -0.344982
0.202541 0.486616 -0.713114
-0.267049 0.580813 0.175199
-0.323581 0.218239 0.625051
0.332220 0.040730 -0.762168
-0.219096 0.038345 -0.655441
0.147720 0.191026 -0.907491
0.231887 -0.327814 -0.863768
-0.265670 -0.129240 0.289613
0.249388 -0.179636 -0.274968
-1.031964 -0.195095 -0.013428
-0.929476 0.049292 0.488680
-0.639723 -0.795902 0.140093
0.149466 0.852673 -0.300278
0.373167 -0.343449 -0.531347
0.279333 0.517693 -0.591074
-0.352251 0.343043 0.542211
-0.466798 -0.432881 -0.585904
0.493466 -0.265360 -0.696024
-0.096328 -0.560003 -0.225559
-0.487002 -0.051268 0.577033
-0.851224 -0.086294 -0.110911
0.458628 0.394094 -0.406560
-0.592293 0.001536 -0.304699
-0.612530 0.215972 0.775936
-1.138080 -0.383976 -0.021433
-0.320842 0.221903 -0.405787
-0.733091 -0.373524 -0.459736
0.364210 -0.269879 -0.463691
-0.113250 0.624496 0.083596
0.383924 -0.044111 -0.304137
-0.074059 0.761386 -0.125976
-0.853049 0.390956 0.270664
0.256165 -0.174126 -0.277485
-0.818286 -0.719099 0.248965
-0.431930 -0.128055 0.459859
0.396568 0.417420 0.050198
-0.361210 0.565401 0.214502
-0.182672 0.147448 0.425239
0.270273 -0.044305 -0.891314
-0.938587 -0.134762 0.381860
-0.810019 -0.509523 0.367684
-0.156694 0.404173 -0.427919
-0.669942 -0.063494 0.753594
0.374930 -0.161027 -0.388001
0.307528 -0.047486 -0.841456
-0.663016 -0.399206 0.479438
-0.630732 -0.672339 0.229249
0.000457 -0.354806 -0.783296
0.246311 -0.136849 -0.971809
0.392296 0.312297 -0.540109
-1.060474 -0.168249 0.196264
-0.171138 0.047756 -0.696789
-0.151449 0.180144 0.419459
-0.022520 0.690050 -0.337095
-0.586696 -0.062953 -0.361709
0.111989 0.026958 -1.001645
-0.196844 0.468665 0.328987
-0.120146 0.076620 -0.725748
-0.321870 -0.605834 -0.032352
0.211823 -0.383079 -0.398582
0.384478 0.319907 -0.547017
-0.204934 0.460684 -0.333834
-0.151086 -0.052545 -0.797011
-0.664870 0.239090 -0.041789
0.429536 0.184907 -0.553860
-0.409335 0.011513 -0.483069
-0.724575 0.131462 0.813929
-0.479133 -0.713617 -0.168018
0.564524 0.122697 -0.355325
0.176081 0.198007 -0.897438
-1.047535 -0.127972 0.055832
-0.335066 -0.321612 0.207222
-0.507735 0.445194 -0.037816
-0.087175 -0.543757 -0.221953
-0.240305 0.630208 -0.162937
-0.660809 -0.830795 0.037299
-0.928665 -0.585736 -0.278718
-0.631068 0.098194 -0.188311
-0.305399 -0.506964 -0.504445
-0.972667 -0.684231 -0.125162
-0.615020 -0.801826 -0.013613
-0.195804 0.617885 0.107832
0.267357 0.511651 0.184091
-0.218904 0.077368 -0.624588
0.539104 0.681763 -0.148064
-1.101742 -0.532546 -0.047275
-0.736056 -0.356458 0.548267
-1.076856 0.195460 0.359826
-0.724033 -0.888697 0.134108
0.530545 0.697887 -0.137755
-0.448042 0.307157 -0.208428
-0.084005 0.297918 0.444485
0.061199 -0.465935 -0.311124
0.414600 0.364515 -0.010259
0.297845 -0.353323 -0.837537
-1.010558 -0.107454 0.296374
-0.058091 -0.051269 -0.890692
-0.277728 0.296065 -0.390685
-0.472752 -0.675611 0.065774
0.261760 0.444446 -0.652859
-0.239479 -0.207891 0.200366
0.299098 -0.314752 -0.894874
-0.894601 -0.455254 -0.360298
-0.936865 0.055779 0.481789
0.495996 -0.003333 -0.558381
0.311559 0.437399 -0.587643
-0.709133 -0.013873 0.760865
-0.946425 0.295793 0.591454
-0.532382 0.556433 0.075788
-0.706734 -0.174847 0.681769
-0.149817 0.708588 -0.034532
-0.417155 -0.741188 -0.138037
-1.089951 -0.178544 0.058787
0.030650 -0.244793 -0.951492
-1.064286 0.007291 0.280865
-0.781594 -0.262913 0.533223
-0.597744 0.163921 0.850427
-0.145083 0.068181 0.323895
-0.353275 0.403299 0.453161
-0.975852 0.043374 0.421556
0.573412 0.272794 -0.244952
0.264012 0.274801 0.071707
0.065329 0.537071 -0.548268
0.490168 -0.040004 -0.409059
0.125119 0.544204 0.160778
-0.489824 -0.419212 -0.602116
-0.336677 -0.646461 -0.292397
-0.857664 0.310550 0.211390
-0.597086 -0.100688 -0.381153
-0.104502 0.658839 -0.278445
-0.710631 0.214024 0.795989
-0.058750 0.207544 0.346864
-0.751709 0.183372 0.002309
-0.423891 0.374601 -0.179361
-0.163117 -0.271092 0.072321
-0.076739 -0.389431 -0.718510
0.088381 -0.185703 -0.115842
-0.370416 0.042730 0.533102
0.319162 0.449297 -0.571045
0.137666 -0.088387 -0.088600
-0.786972 -0.916352 0.186076
-1.069965 -0.547635 -0.255225
0.475831 -0.118773 -0.645350
-0.652562 -0.473110 0.409992
-0.329452 0.428219 -0.232867
-0.441306 -0.023998 0.552198
-0.009601 0.178502 -0.757256
-0.963317 0.298663 0.309520
-0.076258 0.679553 -0.004409
-0.361541 0.458285 0.373182
-0.205007 0.378020 0.464646
-0.849302 -0.817478 0.155733
-1.130971 -0.612376 -0.128540
-0.062382 0.594094 0.119713
-0.505443 0.324785 -0.135952
-0.982631 -0.120409 -0.004242
0.173176 0.458242 0.279665
-0.181861 -0.625776 -0.350122
-0.362616 0.101166 -0.459312
-0.790162 0.046319 0.679696
-0.725762 -0.061502 0.713498
0.284338 0.369762 -0.659892
-1.067961 0.304467 0.427928
-0.563685 -0.816421 0.046337
-1.072264 -0.239174 0.143659
0.548402 0.517226 -0.025007
0.222357 0.552819 -0.651834
-0.046328 0.813250 -0.207632
-0.166960 0.353524 0.494263
-0.843702 0.096614 0.631450
-0.322425 -0.553964 -0.431866
-0.825881 0.182020 0.699803
-0.805043 -0.904373 0.171499
0.535685 0.229052 -0.384559
-0.617121 0.321972 0.619769
0.447683 0.315280 -0.462035
0.275213 0.868586 -0.417126
-0.351340 -0.538522 -0.449671
0.455572 -0.337452 -0.785304
-0.155010 0.512097 -0.343766
-0.363365 -0.391819 -0.664812
-0.915430 0.268410 0.236685
0.429331 -0.329733 -0.577626
0.361872 -0.002821 -0.248830
-0.520838 -0.325476 -0.637645
-0.896046 0.064696 0.542767
0.405534 0.627725 -0.011978
-0.394609 -0.589781 0.054490
-0.695417 -0.552436 -0.368850
0.119470 -0.045525 -0.035968
0.516524 -0.416874 -0.741727
-0.301808 0.496176 -0.206949
-0.561168 -0.607139 -0.311339
-0.332023 -0.272170 -0.787503
-0.149764 -0.322453 -0.804915
-0.726383 -0.226071 0.628388
-0.335821 -0.347067 -0.735903
-1.003088 0.008493 0.119149
-0.061510 0.416556 -0.514993
-0.693611 0.337097 0.610757
-0.024187 -0.631524 -0.369206
0.074996 -0.494092 -0.347577
-0.823796 -0.688696 -0.144603
-0.417136 -0.050253 -0.524268
0.195405 -0.508783 -0.481877
-1.102466 -0.310845 -0.033731
-0.067543 -0.326449 -0.069045
-1.078497 -0.326641 -0.070707
0.575130 0.590674 -0.144909
0.460916 -0.007276 -0.608881
-0.491013 0.340912 0.569651
0.520545 0.550288 -0.241023
-0.561633 -0.710662 -0.157957
0.321063 -0.456267 -0.568052
0.325404 -0.055957 -0.821087
-0.028101 0.804448 -0.197788
-0.822347 0.504560 0.385301
-0.578909 -0.766339 -0.072484
-0.679447 -0.866687 0.093712
-0.734397 0.511416 0.245682
0.217175 -0.361261 -0.811664
-0.947464 0.212887 0.225130
0.049783 0.195749 0.226960
-0.523804 0.045369 0.691397
0.274696 0.675148 -0.059307
0.011404 0.307248 0.354754
0.378903 0.145879 -0.643817
-0.052475 -0.056051 -0.900216
-0.823141 -0.462962 0.373387
-0.455232 -0.660852 -0.250338
0.402486 0.190627 -0.588317
-0.298209 -0.175209 0.286174
-0.958373 -0.408397 0.214425
0.356764 0.347552 -0.571167
-0.600269 0.285997 -0.070251
-1.050329 -0.179091 0.204734
0.147822 0.616652 0.049521
0.292546 0.371349 -0.647735
0.239330 0.053959 -0.883772
0.241331 0.117875 -0.848285
0.180338 -0.276085 -0.281392
-0.563154 -0.712667 -0.154721
-0.247538 0.101454 0.454697
0.058915 0.835107 -0.258418
-0.740451 0.504324 0.246206
-0.063172 0.292160 -0.612275
-0.539750 0.229723 0.742835
-0.745102 0.375855 0.562374
0.365575 -0.078385 -0.312722
-0.738977 -0.245416 0.601079
0.369691 0.556368 0.099963
-0.397587 0.286099 0.634471
-0.287349 0.541898 0.236380
0.519120 -0.152896 -0.528361
-0.946661 -0.468016 0.200089
-0.701236 -0.398880 -0.512348
-0.115197 -0.287731 -0.862382
-0.764360 -0.152876 -0.252339
0.009746 -0.329314 -0.822670
-0.854875 -0.759883 -0.033748
-0.697318 0.288835 0.682874
0.373183 0.790634 -0.247560
-1.056955 -0.705146 -0.079439
0.423061 -0.004236 -0.659642
-0.555893 0.177591 -0.201691
0.533302 0.637384 -0.178802
0.291827 -0.064868 -0.872053
-0.507541 0.638391 0.132024
-0.757744 0.384847 0.551272
-0.437278 -0.684118 0.022882
-0.335919 -0.335206 -0.753451
-0.900399 -0.313328 -0.241471
0.436605 -0.079988 -0.679706
-0.177197 -0.224237 -0.907025
0.213774 0.082744 -0.029943
-0.552550 -0.444487 0.330923
-0.401337 0.241536 -0.308198
-0.482889 -0.751792 -0.110830
0.207068 -0.018041 -0.965221
-0.863354 -0.809924 0.140181
0.365842 -0.123714 -0.349059
-0.924072 0.154144 0.549829
-0.383648 0.686275 0.039432
-0.188383 -0.587002 -0.406399
-0.810067 -0.114750 -0.175461
-0.035317 0.144935 -0.757776
0.204421 -0.036694 -0.115447
-0.149825 0.332518 0.522371
0.547100 0.322374 -0.178712
-0.156722 -0.615336 -0.369982
-0.441357 0.468264 -0.087053
