ply
format ascii 1.0
element vertex 1672
property float x
property float y
property float z
end_header
-0.221843 -0.108557 -0.608812
-0.767784 0.202632 -0.209939
0.809073 -0.154508 -0.203197
0.494915 -0.028340 0.339886
-0.599551 0.014839 0.627693
-0.387831 0.054966 -0.681310
0.494263 0.069777 0.277360
0.789434 0.202738 -0.258867
-0.586880 0.103823 0.334565
0.990526 0.088748 -0.681310
0.516151 0.079396 0.312189
0.632186 -0.128234 0.234685
0.714263 0.206454 -0.681310
0.524863 -0.344815 -0.681310
-0.595448 0.025363 -0.681310
0.567758 -0.014803 0.582778
0.586713 -0.371714 -0.681310
-0.599568 0.317187 -0.376185
-0.490056 -0.114517 0.167259
-0.573241 0.022392 0.581004
-0.358080 -0.133602 -0.220531
0.586306 0.080106 0.413263
0.556333 0.124618 0.247983
0.600913 0.026584 0.589176
0.598697 -0.172011 0.107661
-0.568112 -0.098071 0.343761
-0.441805 0.082043 0.106901
-0.758247 0.333177 -0.557866
-0.618537 0.055020 0.479599
0.767209 -0.073259 0.052412
-0.583981 -0.195913 0.027522
-0.300655 -0.246492 -0.594208
0.324891 -0.076895 -0.249518
0.745781 -0.096789 0.079412
-0.582390 -0.089840 0.379626
-0.632491 -0.235116 -0.113201
-0.476326 -0.065803 0.233810
0.613535 -0.322792 -0.396766
0.656586 -0.071970 0.361950
-0.613038 0.056099 0.483125
-0.937601 0.092970 -0.507326
0.518656 0.029077 0.414151
-0.664074 0.039077 0.411952
-0.560232 0.302448 -0.332875
0.618224 -0.178100 0.081879
0.443525 -0.270889 -0.350552
0.345528 -0.077371 -0.184065
-0.758781 -0.276259 -0.392048
-0.696347 -0.248650 -0.215825
0.276113 -0.243209 -0.651130
-0.399582 -0.009860 0.034601
-0.445338 -0.280936 -0.377153
-0.284820 -0.223140 -0.681310
-0.438036 0.183957 -0.121189
0.568137 0.190968 0.039229
-0.820918 -0.198051 -0.324310
-0.984147 0.093150 -0.657862
0.594683 0.002771 0.671051
0.673065 -0.141312 0.140480
-0.553941 -0.079237 0.386331
0.687017 0.059650 0.311132
0.598581 -0.044185 0.532994
0.534819 -0.218502 -0.072702
0.573196 0.166525 0.122180
0.307270 -0.273874 -0.681310
-0.517861 0.060390 0.359086
-0.587346 0.036028 0.559565
0.411838 -0.309887 -0.515790
0.681130 -0.208624 -0.073161
-0.752300 -0.045316 0.130344
-0.621870 0.276010 -0.681310
-0.614934 -0.218858 -0.051757
0.785621 -0.026425 -0.681310
0.515255 0.396304 -0.681310
0.707363 0.318057 -0.681310
-0.898835 -0.002344 -0.337026
-0.599904 -0.006864 0.649662
-0.302313 -0.196084 -0.681310
0.824623 -0.202231 -0.342775
0.678243 0.079975 0.292523
0.415002 0.287193 -0.681310
0.749959 -0.355162 -0.612559
-0.599175 -0.028763 0.583482
-0.560206 -0.274526 -0.240421
0.769409 0.147024 -0.083288
-0.245072 -0.197229 -0.681310
-0.546567 -0.040330 0.475437
-0.965896 0.021706 -0.562638
0.243758 -0.148978 -0.585376
-0.647863 0.201944 -0.681310
0.525430 0.049454 0.401272
-0.717370 -0.312430 -0.439182
-0.679154 0.007647 0.394141
0.767619 0.298234 -0.470092
-0.593266 0.021295 0.610325
-0.483397 -0.168595 0.010385
-0.464387 0.133216 0.063282
0.562580 -0.309904 -0.356781
-0.622831 -0.037916 0.521201
0.535985 0.122604 -0.681310
0.592182 -0.006834 0.658202
0.542153 -0.170880 0.086699
0.555512 -0.248735 -0.157342
-0.778018 -0.254121 -0.365813
-0.981934 0.103627 -0.659257
0.462218 0.385689 -0.681310
0.713861 -0.006415 0.279018
0.797734 0.087730 -0.060099
-0.295640 -0.238913 -0.681310
-0.242647 0.031774 -0.492468
0.522660 -0.062898 -0.681310
0.385541 0.107730 -0.098917
0.581759 0.227995 -0.079655
0.793654 -0.170784 -0.196132
0.686545 -0.144101 0.109261
0.595130 -0.001556 0.673413
0.729223 0.307189 -0.438355
0.496479 0.383651 -0.637659
-0.775914 0.290786 -0.463186
-0.573628 -0.031392 0.557743
0.440541 0.241122 -0.270230
-0.551221 0.015938 0.531187
0.706689 0.022006 0.296436
0.337494 -0.000030 -0.171522
0.948104 -0.067031 -0.522149
0.591572 0.037322 0.556764
0.927847 -0.143753 -0.681310
-0.547949 0.006783 0.528315
0.580510 -0.093673 0.366149
0.589574 0.016458 0.625030
0.619794 -0.150688 0.171338
0.345772 -0.045188 -0.157562
-0.553265 0.168434 0.104188
0.370597 0.244559 -0.421339
0.584767 0.025909 0.590338
-0.642689 -0.270134 -0.234035
-0.556714 0.247696 -0.153324
-0.626706 -0.234240 -0.107370
-0.596028 0.031209 0.576896
-0.863517 -0.030084 -0.224835
-0.542898 -0.040918 -0.681310
0.589237 -0.145583 -0.681310
-0.647486 -0.387795 -0.623878
-0.602839 0.010605 0.633860
-0.653399 -0.101669 0.287705
0.590906 0.003842 0.666144
0.585697 0.014795 0.625796
-0.234994 -0.162918 -0.681310
-0.729318 -0.380159 -0.664506
0.463342 0.109784 -0.681310
-0.320727 -0.225852 -0.498751
-0.198683 -0.058946 -0.681310
-0.372786 0.296954 -0.551695
-0.640359 0.251318 -0.170949
0.548450 -0.121431 0.249762
-0.822606 0.259513 -0.681310
0.519259 -0.278381 -0.681310
-0.554943 -0.255643 -0.180394
0.710107 0.171664 -0.010725
-0.503944 -0.294361 -0.344147
-0.549559 -0.201918 -0.007393
0.926648 -0.095549 -0.474455
-0.568116 -0.035763 0.535424
0.896258 0.221134 -0.568833
0.706062 0.054490 0.263983
-0.586619 -0.244121 -0.132736
0.856842 -0.228915 -0.482180
-0.832042 0.289699 -0.681310
-0.510315 0.063242 0.333406
-0.397284 -0.220761 -0.302870
-0.610316 0.157571 0.153035
0.393315 -0.023154 0.010097
-0.576183 -0.022900 0.585921
0.827442 -0.156583 -0.257487
0.436420 -0.051807 0.130463
0.480256 -0.129325 0.108658
-0.573870 -0.135114 0.226275
-0.633445 -0.234975 -0.113265
0.676680 0.126529 0.176286
0.611661 0.148447 0.182735
-0.606739 -0.035725 0.554131
-0.646238 -0.153668 0.139588
0.764257 -0.338609 -0.583019
0.417032 -0.050780 0.069714
0.691968 0.246011 -0.202170
-0.496816 -0.123952 -0.681310
0.527917 0.140190 0.165624
-0.700715 0.070789 0.252621
0.540293 0.023690 0.487644
0.284949 0.248400 -0.638664
0.426112 -0.132451 -0.029790
0.695678 -0.218992 -0.681310
0.800064 0.014322 -0.009410
0.542448 0.006432 0.510309
-0.856091 0.100651 -0.256579
-0.599559 -0.021614 0.606342
-0.322420 -0.282764 -0.681310
0.506756 0.290457 -0.328985
0.828726 0.208401 -0.366630
-0.923810 -0.165485 -0.681310
-0.294265 0.129867 -0.681310
0.912368 -0.126773 -0.462990
-0.944792 -0.103510 -0.681310
0.463086 0.352802 -0.681310
0.936628 -0.187990 -0.681310
0.594647 0.008398 0.652980
0.380938 0.092169 -0.090494
-0.799105 0.262403 -0.681310
0.673232 0.063304 0.341547
-0.547136 -0.173903 0.081518
-0.640566 -0.070906 0.397337
0.958805 0.124307 -0.681310
-0.531796 -0.400523 -0.669439
0.604709 -0.036348 0.554366
0.640270 0.072185 0.394319
0.658719 -0.255611 -0.198154
0.486754 0.146782 0.076641
-0.252323 0.039028 -0.462845
0.650368 -0.399487 -0.663812
-0.535019 -0.275079 -0.256004
0.588157 0.009205 0.646091
-0.584560 0.135513 0.228651
-0.606498 -0.097194 0.354376
-0.838967 -0.085823 -0.185975
0.908534 -0.123770 -0.447427
-0.205046 0.124059 -0.677471
0.624504 0.083529 0.384137
-0.787715 0.346710 -0.681310
0.456841 -0.283688 -0.681310
0.555570 -0.165099 -0.681310
-0.708037 -0.075053 0.224417
0.858646 -0.233630 -0.497053
-0.190300 -0.012618 -0.681310
-0.935505 -0.023026 -0.681310
-0.651497 0.137455 -0.681310
0.784516 0.220615 -0.291761
-0.710857 -0.115237 -0.681310
0.526657 -0.182154 -0.681310
-0.341777 0.117125 -0.243676
0.871538 0.171382 -0.407847
-0.835892 0.297019 -0.596926
-0.425594 0.339414 -0.681310
0.441561 0.322844 -0.507836
0.413722 0.271671 -0.681310
-0.487523 -0.194757 -0.681310
-0.308976 0.195484 -0.468949
-0.328181 -0.228681 -0.485862
-0.777812 0.061256 0.033398
-0.655390 -0.028196 0.454134
-0.476737 -0.225366 -0.164510
-0.828000 -0.238322 -0.681310
-0.229297 0.157917 -0.641430
-0.841051 0.185949 -0.351140
-0.729951 0.071183 -0.681310
0.202911 0.077177 -0.681310
-0.833834 -0.265680 -0.513222
-0.862903 0.096799 -0.681310
-0.442903 0.143985 -0.681310
-0.603419 -0.022333 0.599640
-0.301672 0.285806 -0.681310
-0.564472 0.021069 0.562169
-0.547326 0.297127 -0.320921
-0.537000 -0.233808 -0.120359
0.540197 -0.144227 0.168953
-0.493485 0.080105 0.254586
-0.852172 0.027236 -0.186216
0.434565 -0.072192 0.099911
-0.662459 -0.305914 -0.364106
0.593687 -0.002727 0.672147
0.496990 0.363947 -0.681310
0.744245 -0.369605 -0.649436
-0.646436 0.144342 0.168653
-0.714160 0.254212 -0.256894
-0.454528 -0.371670 -0.681310
0.577995 -0.008767 0.622388
0.547169 -0.078647 0.377310
0.546736 -0.360465 -0.530243
-0.494748 -0.115644 0.174746
0.598417 0.153674 0.168783
-0.451709 0.065453 0.161221
0.724567 -0.150372 -0.681310
-0.745020 -0.364554 -0.681310
0.628003 0.045672 0.490197
-0.564307 -0.034046 0.532155
-0.604689 -0.079923 -0.681310
0.655231 -0.194342 -0.681310
0.751357 -0.211868 -0.681310
-0.799636 0.138963 -0.681310
-0.661752 -0.028921 0.433742
0.283088 -0.057090 -0.681310
-0.506198 -0.127930 0.165339
0.222913 -0.075506 -0.681310
0.548940 0.043706 0.473626
0.468315 0.360060 -0.589190
0.762389 -0.106493 0.015335
0.355989 0.031640 -0.681310
-0.829854 -0.261801 -0.494734
0.600532 -0.088338 0.385877
0.434996 -0.215963 -0.681310
-0.737128 0.043110 0.180951
0.923770 -0.239562 -0.679129
-0.947487 -0.088270 -0.681310
0.302779 -0.223005 -0.681310
-0.755106 0.078552 0.081888
-0.465763 0.054583 0.218754
0.735164 -0.075200 0.146228
-0.600312 -0.037005 0.555790
-0.490940 0.245512 -0.205399
0.558846 0.156154 0.148246
0.578534 0.066581 0.453948
-0.426164 0.322480 -0.529485
0.809567 -0.305530 -0.681310
0.978598 0.035320 -0.681310
-0.705532 0.003771 0.307136
-0.581148 0.190197 0.046019
0.519617 -0.055323 -0.681310
0.516390 -0.153976 0.107528
0.496904 -0.015932 -0.681310
-0.617971 -0.337679 -0.681310
-0.731489 -0.166238 -0.039179
-0.592295 -0.046767 0.525382
-0.511342 -0.114121 0.212887
-0.909907 0.178025 -0.529314
0.902101 0.125289 -0.429389
0.500273 0.068542 0.296022
0.407208 -0.071427 0.016744
0.350452 0.000845 -0.128334
-0.749107 0.225099 -0.231145
0.483436 0.055819 0.270410
0.907932 -0.088078 -0.407643
-0.589916 0.231140 -0.681310
0.751784 -0.146879 -0.038851
-0.816955 -0.024220 -0.068421
0.632906 -0.105538 -0.681310
-0.610646 0.001392 0.623450
0.913046 0.144774 -0.488540
-0.642292 -0.092029 0.333854
-0.597607 -0.021065 0.609670
-0.310908 -0.100194 -0.317625
-0.446970 -0.032996 0.181154
0.441254 0.054911 0.142315
0.515908 -0.121458 0.201166
-0.687244 -0.120726 0.171495
0.703466 0.054700 0.271445
0.486299 0.077781 0.240243
0.394782 0.006648 0.019066
0.699642 -0.063263 0.268979
-0.539415 -0.032720 0.471048
0.642705 -0.163664 0.111490
0.497145 0.119384 0.170246
0.802903 0.209062 -0.305390
-0.606396 -0.060729 0.474256
0.684076 -0.143140 0.116398
0.437935 -0.361361 -0.681310
0.724257 0.171262 -0.681310
-0.580485 -0.008931 0.629123
0.515525 -0.372821 -0.588211
1.001537 -0.017984 -0.680656
-0.702042 0.269627 -0.681310
-0.708646 -0.003865 0.296753
0.683696 0.272894 -0.276899
0.431969 0.035252 0.130710
-0.714222 -0.138772 0.067858
0.344644 0.013862 -0.148975
0.455928 0.218888 -0.180181
-0.572898 -0.373680 -0.566154
0.573392 0.196516 0.022889
-0.886213 0.152604 -0.681310
-0.648095 -0.017906 0.489294
0.646373 -0.079933 0.361563
0.649710 0.179062 0.055562
0.546504 -0.275704 -0.250872
0.687307 -0.184715 -0.009493
-0.949240 -0.157103 -0.615452
0.517621 -0.137160 0.159064
0.890556 -0.241547 -0.595319
0.995445 -0.033140 -0.681310
0.679114 0.039315 0.366803
-0.420827 -0.086881 0.037447
-0.749298 -0.015223 0.158993
-0.327073 0.102928 -0.270263
-0.705479 -0.099857 0.180800
-0.340156 -0.250189 -0.505181
0.732429 -0.115711 0.078227
-0.547620 0.038167 0.482778
-0.622242 0.101496 0.329542
-0.767068 0.108932 -0.002196
-0.825458 0.156942 -0.252666
0.908459 0.196479 -0.556527
-0.928429 -0.225654 -0.681310
-0.493792 0.126997 0.143427
0.946045 0.180743 -0.681310
-0.887884 0.021112 -0.681310
-0.701179 -0.133086 0.110343
0.516639 0.186866 0.007988
0.701680 0.031233 0.305479
-0.605362 -0.024920 0.589087
-0.431774 -0.146119 -0.681310
0.743667 0.086572 0.103077
-0.563973 -0.206656 -0.681310
0.678381 0.113751 0.207898
-0.823492 0.037227 -0.095822
-0.601686 -0.023002 0.599750
-0.692336 0.106052 -0.681310
0.355925 0.202402 -0.358638
0.252456 -0.149485 -0.559435
-0.902292 0.190288 -0.528183
0.591470 -0.322173 -0.392617
-0.889569 0.261415 -0.635619
0.638080 -0.059812 0.432337
-0.510260 -0.224368 -0.681310
-0.639531 -0.285429 -0.681310
0.354251 -0.243996 -0.681310
-0.426421 -0.343537 -0.591836
-0.392083 -0.100566 -0.068648
-0.794285 0.174436 -0.205667
-0.576466 0.115591 0.291922
-0.431181 -0.187888 -0.681310
0.924455 -0.042431 -0.681310
-0.706895 -0.211623 -0.119233
0.635434 -0.088037 0.356038
-0.533214 0.041881 0.437051
0.640242 -0.002948 0.524672
-0.728180 0.120414 0.078720
0.762043 -0.183273 -0.681310
0.706085 -0.325127 -0.681310
-0.841054 -0.172873 -0.325587
-0.521171 0.311267 -0.383773
0.581037 0.008682 0.631107
0.573457 -0.151293 -0.681310
0.479829 0.107787 -0.681310
-0.945592 0.058514 -0.508943
-0.931361 -0.089841 -0.484535
-0.544788 -0.032718 0.486143
-0.694642 0.193387 -0.046395
-0.847713 -0.170632 -0.681310
0.658868 -0.002377 0.462753
-0.594762 0.165338 0.130164
0.643736 0.163634 -0.681310
0.551860 0.021940 0.524882
-0.767728 0.022704 -0.681310
0.293491 -0.184838 -0.681310
0.397063 0.118130 -0.082312
0.431769 0.303151 -0.463762
0.839576 -0.214859 -0.408006
-0.630439 -0.136365 -0.681310
-0.371796 0.200578 -0.681310
0.780226 0.264495 -0.398209
0.352784 -0.082211 -0.166090
-0.401074 0.146298 -0.124023
-0.813195 0.272009 -0.484517
-0.706826 -0.043880 0.275742
-0.743431 0.228781 -0.681310
0.658431 0.074625 0.351239
-0.683387 -0.146124 0.109179
-0.689946 0.032146 -0.681310
-0.758990 -0.338884 -0.576028
-0.588468 0.089579 0.382271
-0.392795 0.211438 -0.290093
-0.735630 0.027210 0.198428
-0.633732 0.040498 0.490659
-0.799322 -0.259380 -0.681310
0.393853 0.171306 -0.195188
-0.532993 0.237650 -0.136001
0.911365 0.205605 -0.581013
-0.642270 0.001461 0.518149
0.534926 0.351604 -0.681310
0.573917 0.094590 -0.681310
-0.592930 -0.000368 0.679465
-0.653258 0.176171 0.061042
0.830599 0.043136 -0.122507
-0.267308 -0.169269 -0.543214
-0.599000 -0.074365 0.432712
-0.802512 -0.321797 -0.681310
-0.654444 -0.133507 0.191895
-0.774716 0.050660 0.053594
-0.746894 0.279715 -0.382322
-0.595053 -0.078834 0.418469
0.550595 -0.157337 0.137839
-0.265306 0.019201 -0.414021
-0.774389 0.264785 -0.387900
0.805670 0.098196 -0.681310
-0.584634 -0.017072 0.617424
0.822011 0.196031 -0.681310
-0.233077 -0.177913 -0.681310
0.296716 -0.128742 -0.681310
0.790596 -0.056950 -0.003056
0.718193 -0.014790 -0.681310
0.618199 0.009667 0.592414
0.678211 0.180425 -0.681310
-0.767372 0.078347 0.045141
-0.533193 0.019288 0.470751
0.590488 -0.006102 0.658853
-0.285646 0.189956 -0.524052
-0.506248 -0.036191 0.366924
0.278335 0.157451 -0.492578
0.477497 -0.247443 -0.681310
0.513790 -0.025267 0.403078
0.672843 0.063780 0.341570
0.685622 0.180477 0.005643
0.333155 -0.089170 -0.681310
0.793335 0.005620 0.014407
-0.604174 0.019897 0.605798
-0.508228 0.120220 -0.681310
0.841554 -0.100973 -0.211900
-0.410859 0.213204 -0.681310
-0.551570 -0.072136 0.403450
-0.977981 0.035017 -0.606117
0.512950 0.284338 -0.303641
0.565034 0.023098 0.559521
-0.991096 0.060273 -0.659666
-0.793614 0.171231 -0.196999
-0.781601 -0.030474 0.045616
-0.535532 0.374386 -0.681310
-0.619911 -0.027502 -0.681310
0.403980 -0.204395 -0.681310
0.579897 0.163199 0.135469
0.687291 0.177560 -0.681310
0.671863 0.069304 0.332209
0.906967 0.020907 -0.681310
0.523181 0.279207 -0.278315
0.754162 0.317442 -0.681310
-0.659173 0.008187 0.460189
-0.652759 -0.140507 0.172800
-0.480146 -0.330422 -0.482939
0.407802 -0.087640 -0.681310
0.428239 -0.160643 -0.086556
-0.409063 -0.345805 -0.681310
0.760595 -0.355755 -0.629053
-0.467783 -0.243345 -0.231452
-0.559516 0.050100 0.479808
0.624938 -0.161282 -0.681310
0.881767 0.285595 -0.681310
-0.720658 0.043799 0.232516
-0.700957 0.336367 -0.681310
-0.611726 -0.134496 0.228823
0.315752 -0.041550 -0.254302
-0.763282 -0.185092 -0.156266
-0.310037 -0.121875 -0.681310
-0.496005 0.208768 -0.681310
-0.719087 -0.064908 0.209617
0.361089 -0.298149 -0.578473
0.850845 0.198377 -0.402204
-0.316508 0.092235 -0.291346
0.724724 0.165552 -0.681310
-0.641467 -0.017042 0.511138
0.205896 0.077909 -0.636035
0.609547 0.150121 0.177998
-0.752936 0.065078 0.106807
0.822368 -0.208245 -0.350507
0.912830 -0.152900 -0.681310
0.550649 0.062906 0.427888
-0.334370 -0.066937 -0.681310
0.276353 0.101098 -0.681310
0.325923 0.184156 -0.401008
0.363508 -0.147993 -0.229894
-0.875696 -0.138503 -0.681310
0.583212 -0.004680 0.644111
-0.820628 0.131875 -0.194599
0.713136 0.009572 0.280727
0.784758 -0.230326 -0.316964
-0.589049 0.002701 0.664398
-0.580812 -0.032019 0.566697
-0.696565 -0.207328 -0.090698
-0.838782 -0.001785 -0.136839
-0.595984 -0.030100 0.580592
-0.267315 0.036518 -0.681310
0.590143 -0.003310 0.665961
-0.541738 0.173187 -0.681310
0.655803 0.247825 -0.170607
0.625604 -0.288114 -0.285070
0.770817 -0.170476 -0.138980
0.298853 0.168929 -0.450364
0.696742 -0.127698 0.133606
-0.548493 -0.002754 0.531527
0.390413 0.093417 -0.063356
0.253450 -0.112451 -0.512065
0.735209 0.052978 0.176529
-0.772331 -0.252442 -0.350214
0.866047 0.173619 -0.396294
-0.259240 -0.063220 -0.681310
-0.544521 0.013657 0.512321
0.712616 0.320572 -0.458827
-0.491978 0.205594 -0.082772
-0.557012 -0.004430 0.559306
0.465136 0.166304 -0.018645
0.563771 0.074875 0.412966
-0.772388 -0.125103 -0.046760
0.587263 -0.007825 0.648278
-0.576218 -0.164292 0.130703
0.584019 -0.017827 0.614248
0.286413 0.000014 -0.341792
-0.623163 0.356753 -0.512015
-0.790221 -0.191997 -0.235349
-0.364259 -0.043669 -0.096056
0.590924 -0.004819 0.663334
-0.390919 0.118471 -0.100503
0.387993 0.035623 -0.013417
-0.380487 0.139334 -0.166709
-0.343156 0.308302 -0.642170
0.522881 -0.132376 0.181439
-0.680022 -0.161560 0.070165
0.394851 0.153554 -0.155205
0.226576 -0.014900 -0.542258
-0.609690 0.246892 -0.681310
0.707657 -0.043434 0.273686
0.614252 0.058581 0.473976
0.764794 -0.117038 -0.681310
-0.732414 -0.025995 -0.681310
0.292392 0.218395 -0.558171
0.339420 -0.229523 -0.459636
-0.783060 -0.080359 -0.005471
0.637247 0.143420 0.181346
-0.771890 0.266555 -0.388116
-0.722346 -0.074409 0.184896
-0.505498 0.189552 -0.681310
0.409875 -0.218694 -0.681310
0.547937 -0.157105 0.136192
0.542393 0.212628 -0.047514
-0.366217 -0.075222 -0.116221
-0.820373 -0.072518 -0.113123
-0.551831 -0.157316 0.138975
0.836478 0.028271 -0.134598
0.591411 0.052726 0.505439
-0.274728 -0.045551 -0.391540
-0.927253 -0.042611 -0.440748
-0.600235 -0.000613 0.658247
0.449114 0.061502 0.158660
0.335464 0.055217 -0.197773
0.262422 0.071050 -0.446899
0.237310 0.118890 -0.681310
0.831173 -0.301069 -0.681310
-0.710000 -0.093500 0.182969
-0.862256 0.118469 -0.298197
-0.502388 0.280476 -0.301541
0.576138 0.038091 0.541987
0.693119 0.199524 -0.062293
-0.370557 -0.267862 -0.480031
-0.870745 0.187046 -0.433927
-0.583024 0.004350 0.643979
-0.345088 0.040912 -0.157372
-0.208293 0.014383 -0.603088
0.414936 0.130850 -0.681310
-0.734056 0.219766 -0.188537
-0.841427 0.241029 -0.681310
0.622265 0.050397 0.487623
0.389976 0.080703 -0.681310
0.327609 0.191097 -0.409730
-0.612189 -0.019876 0.590012
0.429934 -0.023973 -0.681310
0.609516 -0.088163 0.382530
0.565347 0.087795 0.374140
0.677633 -0.329401 -0.452070
-0.777085 -0.167225 -0.146843
0.826042 -0.109743 -0.176283
0.521627 0.147286 0.135250
-0.318638 -0.132659 -0.681310
-0.568035 -0.107168 0.314256
-0.519345 -0.401774 -0.680464
0.581144 -0.201134 0.009631
0.302882 0.109278 -0.353150
0.537596 -0.168069 -0.681310
-0.572752 0.059880 0.470236
-0.339016 0.032957 -0.173536
-0.600687 0.024442 0.596238
-0.401865 -0.234636 -0.328189
0.186894 -0.013045 -0.674222
0.408023 0.059582 0.032433
-0.463749 -0.275211 -0.681310
0.395564 0.102861 -0.681310
0.403915 0.009198 0.049137
-0.685379 0.199319 -0.050497
0.579360 0.368242 -0.681310
0.837953 0.024103 -0.138003
-0.806182 0.192024 -0.274219
0.393062 0.314158 -0.560588
0.610894 -0.030095 0.565183
-0.690555 -0.049493 0.317693
0.734251 0.234444 -0.681310
-0.538449 -0.272777 -0.681310
0.792828 0.005452 -0.681310
0.409638 -0.228171 -0.295135
-0.743099 0.031728 0.171045
0.528934 -0.089086 0.314872
0.638761 0.393524 -0.681310
-0.617334 -0.001901 0.601090
0.720656 0.301759 -0.410412
-0.745032 0.268195 -0.345755
-0.779697 -0.248446 -0.353920
0.626356 0.016631 0.558094
-0.989605 0.000617 -0.639562
0.412019 -0.128994 -0.681310
-0.738276 0.025144 0.190987
0.852769 -0.220664 -0.681310
-0.469515 0.140418 -0.681310
-0.616053 -0.169797 0.110280
-0.385485 -0.281906 -0.681310
-0.612933 -0.338385 -0.448529
-0.296984 -0.110023 -0.681310
-0.593401 -0.000007 0.681117
0.388802 0.283221 -0.483220
0.775735 -0.058409 0.042924
0.339231 -0.166245 -0.681310
0.648193 0.075023 0.371528
-0.594979 0.004233 0.666184
-0.580679 -0.008101 -0.681310
-0.543156 0.210412 -0.039738
-0.549464 -0.169104 0.098962
-0.574158 0.013964 0.602211
-0.660276 -0.227552 -0.109328
-0.429077 0.342336 -0.584381
0.683284 -0.121645 0.177031
-0.658964 0.251661 -0.185610
-0.752069 -0.319404 -0.681310
-0.350944 -0.286952 -0.681310
-0.300193 0.256821 -0.617812
-0.870282 0.007182 -0.242128
0.645853 -0.129631 0.215103
0.528816 0.015771 0.459885
-0.418413 -0.253804 -0.346185
-0.519669 -0.264805 -0.234901
-0.902696 -0.018652 -0.681310
0.780392 -0.282044 -0.446797
-0.237169 0.095310 -0.547712
0.600691 -0.046321 0.524974
-0.381856 0.212817 -0.318790
-0.739601 -0.296047 -0.419373
0.815370 -0.232676 -0.390727
-0.707900 0.389404 -0.681310
0.693055 0.050010 0.309477
0.854884 -0.057132 -0.211049
0.489785 -0.296165 -0.364520
-0.553454 0.230464 -0.098325
-0.665691 0.048127 0.391668
-0.910568 -0.205907 -0.579329
0.633672 -0.148649 -0.681310
0.510284 0.018960 0.397323
-0.609458 0.210946 -0.023891
-0.862547 -0.093622 -0.268753
0.576038 0.276282 -0.681310
-0.886300 0.107055 -0.358371
0.527418 0.001986 0.461458
0.493413 0.285132 -0.681310
0.874179 0.244276 -0.681310
-0.470430 -0.073590 0.203779
-0.391333 0.029156 0.000963
0.619052 -0.051270 0.490129
-0.610854 0.050942 0.501751
-0.723172 -0.189503 -0.084393
-0.615988 0.008432 0.600765
0.277457 -0.005121 -0.371785
-0.278827 0.043113 -0.681310
0.366675 0.121684 -0.681310
-0.514156 0.112120 0.223761
-0.765552 0.046527 -0.681310
0.340838 0.104047 -0.681310
0.822613 0.047557 -0.099190
-0.556283 -0.033756 0.514210
0.593368 -0.000576 0.679388
0.854084 0.130813 -0.291074
0.556619 -0.302626 -0.681310
-0.878714 0.246402 -0.575452
0.657028 -0.233430 -0.681310
-0.630171 0.010655 0.553516
-0.441351 0.148408 -0.026793
-0.375409 0.314808 -0.594968
-0.511326 -0.010821 0.405549
0.397323 0.341100 -0.681310
-0.544480 0.020718 0.504396
-0.274591 -0.018245 -0.382938
0.236747 -0.100059 -0.553252
-0.593559 -0.009706 0.648950
-0.528510 -0.032609 0.439403
-0.865788 -0.049361 -0.241622
-0.718708 -0.151068 0.026941
-0.637595 -0.090140 0.346591
-0.732133 0.085674 0.137634
0.605552 -0.289981 -0.286148
-0.369690 -0.313542 -0.602475
-0.735855 0.035994 0.191354
0.727130 -0.020739 0.230028
0.784350 0.138335 -0.104819
0.275779 -0.015276 -0.378463
0.964000 -0.150151 -0.681310
-0.675089 -0.185027 0.007041
-0.855157 0.262158 -0.553703
-0.482910 -0.063801 0.256180
0.563397 -0.097137 0.342482
0.779326 -0.049452 0.039828
-0.404341 -0.010721 -0.681310
0.890902 0.182700 -0.482592
0.665835 0.200250 -0.681310
0.589814 -0.043901 0.534502
-0.287135 -0.145309 -0.681310
0.946018 -0.120351 -0.681310
-0.544350 -0.145554 0.169380
-0.588860 0.010921 0.641957
-0.291208 -0.135039 -0.421825
0.575523 -0.068372 0.445788
-0.829886 0.237432 -0.435860
-0.617954 -0.054834 0.480964
0.636026 0.011267 0.534164
0.751079 -0.186973 -0.134093
-0.579844 0.142307 0.204822
0.545838 -0.089762 -0.681310
-0.966975 0.087846 -0.681310
-0.598917 0.043203 0.536107
0.319850 -0.276911 -0.616032
0.874472 0.157965 -0.393585
0.821764 -0.261428 -0.475891
-0.586934 0.246347 -0.140125
0.723638 0.081752 -0.681310
-0.982623 -0.111679 -0.681310
0.408292 0.036074 -0.681310
0.854918 0.093515 -0.244651
0.876331 0.242042 -0.681310
-0.650012 -0.075813 0.365806
0.498205 0.285262 -0.321052
-0.606708 0.019415 0.602744
-0.348755 0.197483 -0.366564
-0.671979 -0.015262 -0.681310
-0.798041 0.060500 -0.681310
-0.673801 0.167463 -0.681310
-0.652291 0.002079 0.484696
-0.847584 -0.010613 -0.166895
-0.782283 -0.226486 -0.681310
0.566690 0.037923 0.526802
-0.469124 0.342757 -0.533930
0.492491 0.176219 -0.681310
-0.670534 -0.036382 0.396859
-0.593125 -0.000241 0.680225
-0.400573 0.041391 0.024096
-0.697945 0.070636 0.260585
0.525735 -0.144209 0.150409
-0.236459 0.063701 -0.681310
0.689775 0.111039 0.191087
0.628301 0.360916 -0.527374
-0.487979 0.320281 -0.442581
0.514614 -0.008644 0.417302
0.541892 -0.225557 -0.089858
0.581660 -0.149530 0.181358
-0.589744 0.010299 0.644942
0.214368 0.100138 -0.681310
-0.673333 0.009658 0.412743
0.330231 -0.263787 -0.681310
-0.382038 -0.245265 -0.681310
-0.532795 0.025803 0.461919
-0.759395 0.358710 -0.636288
-0.721598 0.217538 -0.160460
-0.604691 0.084544 0.396969
0.824363 0.146581 -0.230683
0.696410 0.106106 0.188234
-0.550092 -0.249131 -0.681310
-0.454479 -0.361344 -0.681310
-0.252205 -0.043030 -0.464829
-0.606024 0.391316 -0.623762
-0.357202 0.183881 -0.316327
0.936359 0.174089 -0.600904
0.681343 -0.389948 -0.651204
-0.361378 0.224306 -0.394286
0.332195 -0.231335 -0.681310
-0.320928 -0.254353 -0.681310
-0.816090 0.155088 -0.223419
-0.542091 -0.311280 -0.370262
0.588041 -0.176601 -0.681310
-0.527490 -0.057753 -0.681310
-0.598227 -0.110566 0.312396
0.611812 0.206125 -0.008525
-0.699556 -0.190004 -0.681310
-0.510926 -0.003917 0.406273
-0.585439 -0.038308 0.550927
0.572054 -0.393392 -0.631915
0.587144 -0.040510 0.544704
0.592343 0.003006 0.670750
0.591522 -0.044847 0.531697
-0.532466 0.162193 0.103838
-0.646243 -0.152871 0.142094
-0.368745 0.030657 -0.074294
0.482030 -0.382358 -0.646127
-0.555674 -0.037447 0.504259
0.592505 0.013774 0.635313
0.329490 -0.035124 -0.205959
0.892440 -0.221838 -0.559974
-0.593782 0.001860 0.674939
-0.325334 0.298919 -0.656938
-0.805300 -0.339141 -0.651782
0.817452 0.097313 -0.133104
0.668602 -0.373236 -0.587849
0.634587 -0.007964 0.541291
-0.676618 -0.082649 -0.681310
-0.793712 0.303322 -0.530447
-0.661662 0.092425 0.298197
-0.231312 0.175022 -0.681310
-0.754258 0.081947 0.079381
-0.348383 -0.236025 -0.452580
-0.432927 0.251636 -0.313423
-0.686541 -0.068414 0.295936
-0.608523 0.285211 -0.681310
-0.823797 -0.175177 -0.283606
-0.806729 -0.150276 -0.188658
0.434465 0.162037 -0.681310
-0.546087 0.005968 0.522536
0.227887 0.003665 -0.681310
0.609704 0.001366 0.626586
0.826054 0.161182 -0.262289
-0.472556 0.136818 0.072953
0.612618 -0.128419 -0.681310
-0.743771 0.177577 -0.094449
-0.375535 -0.251395 -0.427444
-0.469877 -0.258557 -0.273767
0.763664 -0.094058 0.032756
0.606396 0.038823 0.544781
-0.578936 0.105368 0.326815
0.608262 -0.047318 0.515931
-0.373900 0.241841 -0.681310
-1.000981 0.021160 -0.679311
-0.705888 -0.033082 0.290290
-0.555986 -0.153114 -0.681310
-0.569845 -0.091256 0.367200
-0.422799 0.151685 -0.681310
0.780845 0.287054 -0.681310
-0.494688 0.200201 -0.681310
0.727174 -0.257384 -0.285684
-0.394423 0.110273 -0.076828
0.586232 -0.155556 0.162247
-0.308660 -0.018176 -0.269569
0.717859 -0.002855 0.266150
-0.393105 -0.193499 -0.246874
0.975399 -0.043968 -0.600613
0.545494 -0.322815 -0.681310
0.813247 -0.039674 -0.063537
0.257487 0.153469 -0.681310
0.397527 0.146875 -0.134618
0.589092 0.015593 0.627435
0.704648 -0.043483 0.282988
0.685855 0.179662 0.007705
0.850961 -0.230700 -0.471412
0.313337 -0.297033 -0.681310
0.608234 -0.143847 0.199257
-0.510326 -0.126940 0.175723
0.617420 0.023158 0.569956
0.563178 0.232274 -0.099438
0.495416 0.097076 0.221676
0.694838 -0.053959 -0.681310
-0.331446 0.052313 -0.681310
0.447368 0.139100 0.009183
0.551776 -0.114720 0.274579
-0.711005 -0.057112 0.245343
-0.666143 -0.170211 0.064222
0.395736 0.036226 0.011640
0.884931 0.028688 -0.295341
-0.553739 0.029975 0.515747
-0.590324 -0.018361 0.619284
-0.415716 -0.073348 0.040726
-0.199790 0.039261 -0.637048
0.569763 0.054349 0.483829
-0.354109 0.080362 -0.681310
0.848779 0.269314 -0.555969
-0.305461 -0.175956 -0.681310
0.308871 0.059016 -0.287123
-0.803342 0.237801 -0.376194
-0.622423 0.344292 -0.470415
-0.805780 -0.073472 -0.681310
-0.856282 -0.302428 -0.681310
0.561449 0.072903 0.416060
0.849792 0.154158 -0.316079
-0.654081 -0.184549 0.033685
-0.592240 -0.013940 0.634696
0.422184 0.019968 0.106908
-0.337854 -0.050405 -0.681310
-0.745002 0.150209 -0.030206
-0.526780 -0.031619 0.435669
0.574138 -0.043911 0.521551
-0.727053 0.073877 0.172104
0.584541 0.096513 0.358266
-0.347015 -0.067680 -0.170215
-0.690542 0.349865 -0.529077
-0.650110 -0.067113 -0.681310
-0.388185 0.320115 -0.586074
-0.481407 0.022919 0.300446
0.772105 -0.298248 -0.477750
0.917203 0.003393 -0.398280
-0.926436 -0.210764 -0.632600
-0.553791 -0.395306 -0.681310
0.616463 -0.016844 0.585961
-0.496718 0.102091 0.212753
-0.974475 0.141460 -0.681310
-0.328389 -0.264963 -0.567720
-0.579377 -0.251790 -0.159280
-0.383480 -0.151985 -0.182418
0.781412 -0.211929 -0.263169
-0.559894 0.002464 0.569510
0.589398 -0.007484 0.653108
-0.726019 0.159368 -0.009911
-0.337783 0.017556 -0.172566
-0.363822 0.053615 -0.104357
-0.637978 0.242467 -0.140493
0.738956 0.172586 -0.681310
-0.919838 -0.122257 -0.681310
-0.554505 -0.046623 0.479041
-0.642492 0.016312 0.508695
-0.578837 0.307518 -0.344891
0.781133 0.061295 -0.681310
-0.609006 -0.255821 -0.173024
0.646713 -0.196467 0.002686
0.617978 0.144054 0.194159
-0.673242 -0.340639 -0.484971
-0.479720 0.253262 -0.243966
-0.673686 0.002040 0.413416
0.299456 -0.055975 -0.315925
0.569888 0.023396 0.570879
0.840187 -0.185534 -0.348008
-0.711479 -0.192252 -0.070850
0.694876 0.074271 0.261985
0.555700 -0.157624 -0.681310
0.640017 -0.118430 0.256991
-0.373903 0.036916 -0.060437
-0.537576 0.038973 0.454523
-0.448430 -0.030675 0.187559
0.265450 0.206447 -0.681310
-0.682405 0.253854 -0.215437
-0.654471 0.000525 0.477545
-0.562250 0.172870 0.095829
0.495558 0.392122 -0.665793
0.462183 -0.005789 0.243683
-0.772432 -0.109656 -0.018667
-0.520466 0.035124 0.411643
-0.751813 0.329126 -0.681310
-0.394123 -0.228383 -0.328903
-0.295783 -0.053012 -0.326178
-0.638349 0.000944 0.531259
0.345020 0.202436 -0.681310
0.714083 0.184711 -0.054266
-0.475973 -0.262041 -0.275778
0.710221 -0.069756 0.227607
0.390835 -0.120759 -0.104627
-0.776469 0.328518 -0.572391
-0.575119 -0.012720 0.607227
0.783926 -0.308929 -0.528641
0.610452 -0.249218 -0.151373
0.933438 0.131972 -0.534699
0.406139 -0.356040 -0.659544
0.852916 -0.163169 -0.340683
-0.302504 -0.274023 -0.681310
-0.761027 0.123378 -0.681310
-0.556781 -0.015754 0.548601
0.763199 -0.349241 -0.613208
-0.241767 -0.024893 -0.493547
-0.668839 -0.178691 0.034693
0.656422 0.233808 -0.125916
-0.595742 -0.051975 0.507876
0.653938 0.245687 -0.162188
0.991694 -0.058793 -0.660910
0.596432 -0.003317 0.666204
-0.593143 -0.000523 0.679442
0.405494 0.154067 -0.128519
0.390762 0.340940 -0.640639
0.892037 -0.277220 -0.677074
0.783017 0.317446 -0.681310
0.747987 0.172217 -0.090219
0.653314 -0.030218 0.457466
0.396042 -0.133226 -0.112255
0.620974 0.118790 0.274773
-0.535414 0.402029 -0.672627
0.429288 0.346353 -0.596164
-0.729325 -0.035162 -0.681310
0.800450 -0.082283 -0.681310
-0.411349 -0.273162 -0.412813
0.482859 -0.272109 -0.297635
-0.681036 0.321284 -0.428812
-0.736765 0.301378 -0.431236
-0.466411 0.309494 -0.433731
-0.413266 0.079308 0.025415
-0.776498 -0.177836 -0.169645
-0.239436 -0.049077 -0.509671
0.494810 0.090689 0.234925
0.396710 -0.027879 -0.681310
-0.687763 -0.348901 -0.523527
-0.323869 -0.261380 -0.570072
-0.554986 -0.171897 0.094227
-0.647463 -0.360202 -0.681310
0.868527 -0.170515 -0.397790
-0.491203 -0.324279 -0.451972
-0.208408 -0.115058 -0.657901
0.410396 -0.016886 0.068894
-0.706033 0.048962 0.271756
-0.322055 -0.139157 -0.335014
0.651235 -0.035723 0.454557
-0.659927 0.145726 0.147254
0.595608 -0.361585 -0.523997
0.556282 0.107158 0.303355
0.670974 0.309810 -0.681310
0.543282 0.038828 0.470128
0.937123 0.053353 -0.681310
-0.604675 -0.332647 -0.428158
0.879525 -0.181324 -0.681310
0.620546 0.351283 -0.681310
0.677620 0.028055 0.385231
0.474071 -0.139640 0.069161
-0.518511 0.007418 0.430645
0.603938 -0.033268 0.564928
0.347968 -0.189203 -0.351524
-0.535600 0.018482 0.479212
0.620280 -0.022507 0.564305
0.679364 -0.297661 -0.351494
-0.784848 0.250156 -0.681310
-0.494062 -0.126490 0.145309
-0.581253 -0.022009 0.597606
-0.817872 -0.287360 -0.534277
0.329488 -0.084907 -0.242624
-0.492351 0.017127 0.339860
-0.670490 -0.093998 -0.681310
-0.655079 -0.378909 -0.598376
-0.593792 -0.000498 0.679074
0.290890 0.267510 -0.681310
-0.800651 0.182357 -0.681310
0.599146 0.031651 0.574049
0.624771 -0.390187 -0.623524
0.491952 -0.085205 -0.681310
-0.502617 -0.010621 0.376823
-0.808239 -0.043266 -0.049383
-0.450758 0.159372 -0.681310
0.232004 0.134128 -0.603459
-0.468621 0.181153 -0.051811
0.315417 -0.173838 -0.681310
-0.650876 0.188112 -0.681310
-0.585429 0.004548 0.650882
0.861004 0.007843 -0.211275
-0.593452 -0.016885 0.625026
0.577205 0.006428 0.623404
-0.469899 0.133655 0.074843
0.510892 -0.066148 -0.681310
0.496411 0.297628 -0.362072
0.541964 -0.033311 0.477200
0.706872 -0.000363 0.302880
0.979031 -0.024354 -0.681310
0.547248 -0.063646 -0.681310
-0.312703 -0.248401 -0.681310
0.501573 0.210592 -0.084420
-0.463225 0.096341 0.141636
0.618366 0.010658 0.590650
0.825065 0.104073 -0.165422
-0.512781 -0.246537 -0.183243
0.635307 -0.000332 0.541429
-0.214660 0.031895 -0.585439
0.837190 0.224769 -0.681310
-0.440453 -0.110413 0.052672
0.698640 0.046940 0.297026
0.346637 -0.170136 -0.317635
-0.478854 -0.045238 0.270966
-0.852102 -0.199809 -0.408439
0.748305 0.344230 -0.577027
0.424172 0.219647 -0.242835
0.889258 -0.228433 -0.564782
-0.967458 -0.049483 -0.576599
0.772881 0.062434 -0.681310
0.297885 -0.039894 -0.681310
-0.580372 0.036723 0.551486
-0.603409 -0.106846 0.323579
0.445933 0.331486 -0.527974
-0.541719 -0.047277 0.447972
0.863606 0.038110 -0.228476
0.597982 0.083131 -0.681310
0.801819 0.079850 -0.062838
0.355908 -0.033412 -0.117942
0.476775 0.234060 -0.681310
-0.545107 -0.188714 0.032040
0.658765 0.103990 0.271785
-0.553023 0.195502 0.015920
-0.398240 0.002664 0.030905
-0.755324 -0.060334 -0.681310
0.589647 0.039356 0.549547
0.453450 0.087840 -0.681310
-0.462208 -0.137069 0.048989
0.706440 0.002675 -0.681310
0.539641 -0.016753 0.493794
-0.512466 0.140699 0.140349
-0.558145 0.101259 0.323968
0.473236 -0.124649 0.104315
-0.551312 0.346038 -0.681310
-0.793575 0.224608 -0.321691
-0.427042 -0.096641 0.040167
0.830551 -0.140301 -0.237336
0.949693 -0.118859 -0.570855
-0.709747 0.017966 -0.681310
0.748826 -0.322283 -0.681310
0.539847 0.118161 0.248953
-0.819028 -0.080381 -0.117263
-0.464526 -0.036592 0.234928
-0.484565 -0.261620 -0.263134
-0.447724 0.283796 -0.381941
-0.659135 0.047547 0.410729
0.477426 -0.049398 0.261297
-0.590175 0.221212 -0.056140
-0.635372 0.381268 -0.597282
0.287222 0.166698 -0.480580
-0.849790 -0.235323 -0.478871
-0.492468 -0.034055 0.326412
-0.505893 -0.209962 -0.076843
0.419596 -0.242999 -0.314440
-0.652616 -0.151805 -0.681310
-0.498763 -0.110493 0.196494
-0.250088 -0.103853 -0.514097
-0.714337 -0.138700 0.067785
-0.727147 0.287761 -0.376516
0.464198 -0.150030 0.021448
-0.691956 0.025595 0.341709
-0.239277 -0.056588 -0.681310
-0.442980 -0.267275 -0.681310
-0.405911 0.154660 -0.681310
0.199550 0.103978 -0.676323
-0.751587 0.317032 -0.499792
0.435683 -0.278343 -0.385000
-0.687335 0.153112 0.082444
0.579409 -0.294012 -0.299831
-0.664709 -0.176863 0.045581
0.774098 0.326156 -0.561671
0.718752 -0.246836 -0.681310
-0.692904 0.159584 -0.681310
0.523584 0.398375 -0.666812
-0.699511 0.016356 0.323245
-0.573216 -0.083702 -0.681310
0.436106 0.132548 -0.004197
0.615091 -0.022190 0.577744
0.559294 -0.025596 0.539319
-0.391319 0.270312 -0.443574
-0.913698 0.081279 -0.420371
-0.703607 -0.148994 0.063452
0.459148 -0.298629 -0.681310
0.222545 -0.105620 -0.603851
0.574158 -0.245800 -0.681310
0.312115 -0.009437 -0.256648
-0.558603 0.000862 0.565472
-0.846060 0.036161 -0.169658
0.487033 -0.204068 -0.085689
-0.594237 -0.338804 -0.448042
-0.437752 -0.051923 0.134556
0.592021 0.005707 0.661782
-0.744424 0.332148 -0.535004
0.893254 -0.060457 -0.681310
0.809118 -0.060767 -0.065917
0.421989 0.327194 -0.681310
-0.479972 -0.092705 -0.681310
0.632285 0.244966 -0.145497
0.632926 0.063283 0.432500
0.613763 -0.181817 0.071444
0.839514 -0.152044 -0.681310
-0.691081 -0.214234 -0.103611
-0.545805 -0.367410 -0.681310
0.740580 -0.133697 0.018374
-0.582793 -0.220841 -0.055668
0.802412 0.335161 -0.635431
0.509036 0.014138 -0.681310
0.624057 0.032116 0.533182
-0.437935 -0.024770 0.156743
0.429783 0.075774 0.080442
0.716564 -0.152355 0.028152
0.329035 0.153979 -0.338322
-0.917302 -0.194043 -0.577444
-0.544878 0.126022 0.231243
0.921379 0.193506 -0.588212
0.708611 0.091486 0.190773
-0.620739 -0.189274 0.043823
0.481504 0.334907 -0.495650
-0.570686 -0.125318 0.256809
-0.479213 -0.123334 0.121179
-0.488410 0.125496 0.136022
-0.570888 0.023395 0.573216
-0.547642 0.305125 -0.347117
-0.599839 0.065339 0.462441
-0.848173 -0.205337 -0.409569
0.867253 0.019907 -0.234130
-0.673372 0.001832 0.414479
0.670850 0.151836 -0.681310
-0.556907 -0.285811 -0.279103
-0.413297 0.115846 -0.032343
0.666229 -0.061220 0.364028
-0.224887 0.033358 -0.551901
-0.617664 -0.046413 0.506645
0.548263 -0.064745 0.418333
-0.644312 0.250739 -0.681310
0.631314 0.064230 0.432596
0.303391 0.110688 -0.353230
0.564299 0.197154 0.017037
0.385282 -0.247262 -0.395868
-0.249532 0.064323 -0.484613
-0.452777 -0.227625 -0.210457
-0.708251 0.038070 -0.681310
0.852198 -0.312557 -0.681310
0.731486 0.266192 -0.318366
-0.638501 0.064773 -0.681310
0.851123 -0.072272 -0.681310
0.709998 0.246983 -0.229178
0.805316 0.260477 -0.438117
-0.570076 -0.032726 0.547462
0.760433 -0.293895 -0.445600
0.850243 -0.206890 -0.418189
-0.508263 0.102316 0.237747
0.580604 -0.019570 0.603471
-0.781750 0.088987 -0.013239
-0.669835 0.033372 0.403129
0.428676 0.282306 -0.681310
0.715333 0.059705 0.228589
0.229331 0.152601 -0.634374
-0.544568 0.067097 0.404804
0.625115 -0.070210 0.424430
-0.615035 -0.110658 0.305431
0.653789 0.147881 0.148785
0.711735 0.110996 -0.681310
-0.534526 -0.089597 0.324051
0.594497 0.098360 -0.681310
-0.970943 0.059534 -0.592904
-0.616818 -0.089539 0.372761
-0.727456 0.275932 -0.341347
0.950229 0.029719 -0.681310
0.718679 0.045487 0.236863
-0.860557 -0.172082 -0.378121
0.520641 -0.061631 0.363609
0.442170 -0.059953 0.139219
-0.455611 0.296445 -0.408286
0.415300 0.063149 0.051606
-0.514945 -0.111789 0.226176
-0.432357 -0.196158 -0.681310
0.326003 0.090927 -0.681310
-0.371535 0.272725 -0.490479
-0.819948 0.061016 -0.681310
0.720706 -0.049056 0.226365
-0.481792 -0.384521 -0.681310
0.283898 -0.237569 -0.681310
0.961847 -0.125413 -0.616224
0.410090 -0.102144 -0.018018
-0.313880 0.060539 -0.271841
0.375835 -0.004797 -0.681310
0.938394 -0.054283 -0.483003
-0.685984 -0.067158 0.299903
-0.545836 0.019603 0.510001
0.943395 0.016795 -0.486871
-0.565328 0.200043 0.007994
0.458886 0.338829 -0.533798
0.437799 0.112844 0.040755
-0.755001 0.171346 -0.681310
0.477849 0.293228 -0.369200
0.619575 -0.119358 0.273955
-0.512961 0.229444 -0.129081
0.450624 -0.136920 0.022049
-0.805325 0.166609 -0.217424
0.671266 -0.260474 -0.224955
0.607473 0.009417 0.624711
0.593756 0.077937 0.421517
-0.493237 0.234273 -0.681310
0.651257 -0.003762 0.487860
0.454600 0.382369 -0.681310
0.719880 0.138167 0.056797
0.231096 -0.033921 -0.681310
-0.540502 0.052931 0.432000
-0.440671 -0.260084 -0.323968
-0.300940 0.002029 -0.293392
-0.680561 -0.002602 0.390456
0.633679 0.018881 0.532857
-0.890462 0.189043 -0.681310
0.842814 -0.112511 -0.230916
-0.681196 0.079400 0.286589
0.764794 0.254539 -0.341678
-0.739796 0.366236 -0.633465
0.319113 -0.006080 -0.681310
0.274080 0.072706 -0.410150
0.267622 -0.124074 -0.681310
0.200638 0.042604 -0.635388
0.665583 -0.030168 0.420357
-0.621989 0.004701 -0.681310
-0.444788 0.161321 -0.049698
-0.361614 -0.256133 -0.681310
0.560274 0.036771 0.516461
-0.376745 -0.027387 -0.681310
0.296326 -0.034252 -0.315311
-0.677573 -0.059406 0.337738
-0.909656 0.240714 -0.681310
-0.692103 0.092379 0.230541
-0.780451 -0.299366 -0.681310
0.901313 0.130395 -0.681310
0.659737 0.094789 0.295550
-0.360676 -0.055049 -0.681310
0.682665 0.057444 0.327314
0.411506 0.357286 -0.681310
-0.543998 -0.190966 0.023849
-0.831436 0.308992 -0.618964
-0.690423 0.257848 -0.237083
0.618331 -0.159632 0.142724
-0.735774 -0.160142 -0.033082
-0.572720 0.289192 -0.285111
-0.515505 0.127679 0.182860
-0.463299 -0.018893 0.243276
0.623072 -0.056583 0.468252
0.730321 -0.116911 0.081022
-0.348205 0.175183 -0.323025
-0.309709 0.235214 -0.546942
-0.367778 -0.004667 -0.681310
0.318059 -0.171450 -0.399724
0.635303 0.083145 0.370868
-0.365838 0.287760 -0.681310
-0.816869 0.271183 -0.490127
0.493896 -0.063209 0.288526
-0.734617 0.114243 0.075692
-0.518983 -0.029654 -0.681310
0.353895 0.201105 -0.361012
-0.566338 -0.069486 0.432812
0.415342 -0.153150 -0.101419
-0.566005 -0.016367 0.575099
0.593981 -0.110626 0.312550
-0.484095 0.095919 0.196705
-0.755446 0.342521 -0.581833
-0.331106 -0.011089 -0.193596
-0.410435 0.039737 0.057392
-0.677491 -0.179189 0.021433
-0.519232 -0.371171 -0.681310
0.442362 -0.039346 0.161229
-0.899744 0.234270 -0.681310
-0.711976 -0.120631 0.117342
0.419854 0.276366 -0.406382
0.317039 -0.017054 -0.241460
0.607923 -0.019359 0.600525
-0.372188 0.146316 -0.202610
0.360741 -0.257733 -0.475940
-0.696551 -0.146840 0.083037
-0.696269 0.051808 0.297213
0.586465 -0.008363 0.645215
0.355186 0.255673 -0.483391
-0.204181 -0.093838 -0.681310
0.839832 0.128789 -0.245712
-0.471988 0.332459 -0.498408
0.626689 -0.093510 -0.681310
-0.403070 -0.020425 0.043420
-0.483925 0.090027 -0.681310
-0.794988 0.124505 -0.108640
-0.468032 0.038841 0.243999
0.332583 -0.112750 -0.681310
-0.587002 -0.086729 0.391442
0.676325 0.022493 0.394725
0.821196 0.010890 -0.079065
0.566537 -0.064574 0.448254
-0.684501 0.328499 -0.455064
-0.526680 -0.130822 0.191883
0.698597 -0.258266 -0.248324
0.764807 0.043540 -0.681310
-0.651071 0.082225 0.346423
-0.618839 -0.043602 0.512947
0.545288 -0.021195 0.506235
0.728824 -0.077650 -0.681310
0.792226 -0.002588 0.018314
0.421972 0.245400 -0.681310
0.708479 0.071516 0.229514
-0.966468 -0.029206 -0.681310
-0.347480 -0.059192 -0.161652
-0.656204 -0.040820 0.431471
0.304708 0.262847 -0.619968
-0.874616 -0.101802 -0.681310
-0.608766 -0.337005 -0.681310
-0.508601 -0.267183 -0.681310
-0.403508 0.189907 -0.213752
0.585905 -0.019162 0.612791
-0.718961 -0.172563 -0.681310
0.519870 -0.047686 0.389338
-0.400496 -0.205970 -0.681310
-0.493399 0.004234 0.347863
-0.753449 -0.096832 0.057610
-0.841056 0.239499 -0.467221
0.365255 -0.090211 -0.136293
-0.555857 -0.289761 -0.292611
0.273604 0.183217 -0.681310
-0.696506 -0.067027 -0.681310
-0.572678 0.003975 0.611160
-0.281138 -0.104493 -0.416117
0.560091 0.231383 -0.097890
0.929705 -0.200928 -0.624708
0.546933 0.072021 0.395712
-0.699786 0.238782 -0.190131
-0.622479 -0.007764 0.580802
-0.421988 -0.295253 -0.456609
-0.593490 0.249984 -0.151972
-0.564397 -0.026159 0.551260
0.768589 0.077822 0.042150
0.667817 0.051283 0.379902
0.473753 -0.020526 0.276846
-0.480782 -0.149393 0.057803
-0.547649 -0.073651 -0.681310
0.303765 0.121799 -0.365860
0.593579 0.002986 0.671324
0.699394 -0.096123 -0.681310
0.269580 -0.040442 -0.406290
0.825622 0.214379 -0.681310
-0.821017 0.079696 -0.681310
-0.551587 0.184166 0.051841
0.386553 -0.008325 -0.681310
0.646372 0.051098 0.435839
0.672215 0.038944 0.388102
-0.369970 -0.001604 -0.063289
0.671821 -0.261111 -0.681310
-0.684601 -0.160647 0.065452
-0.745667 0.302592 -0.447921
-0.761617 0.097041 0.033810
0.637364 -0.121316 0.251123
0.495200 0.002426 0.354064
0.306266 -0.176359 -0.681310
-0.237651 0.065013 -0.681310
0.799979 -0.260067 -0.425906
-0.852798 -0.126322 -0.280597
0.595285 0.083557 0.402710
0.505193 0.040957 0.357308
-0.629546 -0.170065 0.101725
0.231735 -0.081820 -0.554522
-0.864955 0.141442 -0.339467
0.629315 -0.173366 0.091113
-0.831640 0.172158 -0.681310
0.439321 -0.042346 0.148849
0.461976 0.057527 0.203272
-0.434035 -0.052783 0.121892
0.813851 0.088200 -0.110332
-0.490738 0.361420 -0.681310
-0.500160 0.222748 -0.123535
0.542911 -0.129916 0.216772
0.516275 0.134932 0.163340
0.663555 -0.026404 0.431268
0.455827 0.377631 -0.658326
-0.506969 0.098708 -0.681310
0.227685 -0.036479 -0.681310
0.492714 -0.118481 0.163151
0.930304 -0.159249 -0.561013
-0.446196 -0.130977 0.024657
-0.550862 -0.117965 -0.681310
-0.872538 -0.171465 -0.410833
0.432144 0.112597 0.025875
-0.654494 -0.020056 0.466792
0.506497 0.102798 -0.681310
0.615194 0.070929 0.433916
0.515097 -0.182027 0.020871
0.935916 0.131534 -0.541878
-0.644816 -0.168392 0.094366
-0.453710 -0.088233 0.130729
0.838111 -0.120949 -0.228756
-0.327863 -0.017280 -0.205498
0.815591 -0.036006 -0.069174
-0.782866 -0.270214 -0.681310
-0.507899 -0.377398 -0.608521
0.593335 0.000008 0.681270
-0.236801 -0.169919 -0.681310
0.516037 0.252344 -0.198425
0.466760 0.038484 0.240294
-0.596765 0.001018 0.669412
0.801897 0.146062 -0.167406
0.634260 -0.129411 0.228891
-0.597719 -0.064708 0.465123
0.564624 -0.221350 -0.681310
0.579808 -0.051416 0.504084
-0.732708 0.022024 0.210997
0.619293 0.262916 -0.199336
-0.811810 0.019657 -0.049852
0.694697 -0.026777 0.331872
0.828836 0.011057 -0.104529
0.731988 0.056912 0.181741
0.766832 0.176456 -0.681310
-0.591041 -0.064933 0.464732
-0.202773 0.101430 -0.681310
0.937744 0.219142 -0.679389
-0.885692 0.247272 -0.595018
0.947280 0.025863 -0.501623
0.558005 0.101175 0.324080
0.432166 -0.291041 -0.427660
-0.317234 0.227023 -0.681310
-0.717442 -0.308773 -0.681310
0.465517 -0.005366 0.254845
-0.698441 -0.055035 0.285859
0.895894 0.028444 -0.331640
0.947295 0.047023 -0.681310
-0.596634 -0.216025 -0.038857
-0.873489 -0.164604 -0.401773
-0.715261 0.316078 -0.681310
0.625578 0.014052 0.564097
0.840859 -0.243201 -0.475365
0.941801 -0.092043 -0.520055
0.575524 -0.267301 -0.211672
0.416599 0.074000 0.042608
0.591314 -0.342362 -0.459916
-0.807877 -0.103590 -0.112804
-0.611631 -0.093738 0.362959
0.825896 -0.133989 -0.213326
-0.614370 -0.011168 0.601950
-0.742282 0.178211 -0.092871
-0.691689 -0.160758 0.053128
0.678478 -0.294115 -0.339318
-0.336776 0.297164 -0.681310
-0.560283 -0.346148 -0.477769
0.834305 -0.081028 -0.166091
-0.847121 -0.179248 -0.681310
-0.534387 0.008047 0.482965
-0.582116 0.023142 0.595570
0.456177 0.199154 -0.124757
0.754597 0.095435 0.056716
-0.732396 0.218243 -0.181282
0.571171 -0.191892 0.037414
0.558173 0.258894 -0.189596
0.284604 -0.214226 -0.681310
-0.615572 -0.084790 0.389126
0.881464 -0.131014 -0.373721
-0.647669 0.026090 0.480425
0.782229 0.208717 -0.257015
0.381787 -0.134062 -0.681310
-0.882408 0.060293 -0.681310
-0.860562 0.171815 -0.377651
0.508167 -0.100122 -0.681310
-0.687322 -0.096940 0.231258
0.741734 0.116107 0.053258
0.616351 -0.021329 0.576733
0.576288 0.072913 0.431706
-0.524909 0.055584 0.387431
0.767613 -0.244734 -0.320159
0.756270 -0.192190 -0.158544
-0.709404 -0.260399 -0.268998
0.579971 -0.116003 0.292071
-0.269705 0.160204 -0.522421
-0.357794 -0.014449 -0.105333
0.731045 -0.372825 -0.643496
-0.934448 0.062909 -0.474880
-0.494856 -0.126811 0.146095
-0.589501 0.063112 -0.681310
0.870971 0.135092 -0.347860
0.479590 0.204039 -0.097377
0.613583 -0.293164 -0.681310
0.188965 -0.026439 -0.669497
0.598106 0.006321 0.654927
-0.400826 0.270745 -0.426069
-0.641508 0.132375 -0.681310
-0.364146 0.144772 -0.222326
0.410653 -0.304054 -0.501082
-0.703172 0.391882 -0.681310
0.714528 0.142028 0.058970
-0.648372 -0.319293 -0.681310
-0.682295 0.032724 0.365378
-0.342516 0.045809 -0.681310
-0.761287 -0.178331 -0.135235
-0.416122 -0.322411 -0.545052
-0.642812 -0.030331 0.487887
0.486884 0.140471 0.093794
0.497569 -0.318372 -0.426911
-0.584997 0.283706 -0.264786
0.549835 0.009031 0.533191
-0.915556 0.217760 -0.615012
-0.548137 -0.056441 0.440267
-0.363092 -0.128032 -0.681310
0.789967 0.098842 -0.052256
-0.421514 -0.244239 -0.314114
0.751539 0.097741 0.061462
0.770566 -0.090057 0.018672
0.235550 -0.070829 -0.534481
0.640447 0.376089 -0.681310
0.603268 -0.177695 0.088069
0.273347 -0.055651 -0.401355
-0.774758 -0.167294 -0.141278
-0.638187 0.347592 -0.486931
0.247756 0.183551 -0.623049
-0.767585 -0.018632 0.097195
0.805384 -0.053852 -0.681310
-0.560913 0.228702 -0.088656
0.275283 0.145367 -0.484376
-0.311892 -0.190848 -0.452208
-0.618170 -0.059718 0.465732
-0.871686 -0.010856 -0.247203
-0.505079 0.375203 -0.681310
-0.608018 0.036568 0.549970
0.719627 0.033026 0.246209
0.631643 0.349088 -0.489301
0.516129 0.231723 -0.681310
-0.407393 -0.283696 -0.449379
