ply
format ascii 1.0
element vertex 1665
property float x
property float y
property float z
end_header
-0.829690 -0.235025 -0.317495
-0.114918 -0.675740 -0.101625
-0.617702 0.079142 -0.548499
0.157831 -0.888774 -0.835250
0.539375 0.282147 -0.863771
0.632367 0.528838 -0.608957
0.286100 0.022140 -1.346919
0.648729 -0.060560 0.053976
-0.551241 -0.713525 -0.032129
0.516751 0.280835 0.153898
-0.445643 0.433319 -0.341818
-0.068549 0.739438 -0.178532
-0.160037 -0.782839 -0.315826
-0.132362 -0.687500 -1.124349
-1.148190 -0.574465 0.449216
0.884293 0.231662 -0.412928
0.843150 -0.765915 -0.980505
0.641756 -0.090587 -0.913100
-0.600241 -0.279591 -0.717825
-0.227175 -0.731765 -0.162951
0.929374 -0.844015 -0.901324
-1.308978 -0.537445 0.470663
0.819690 0.253866 -0.490844
0.357803 -0.794320 -1.665816
1.010184 0.202628 -0.253806
0.641071 0.062433 0.093717
0.297963 1.048868 -0.804883
-0.371307 -0.615127 0.084745
0.789900 0.123976 0.064512
0.413992 0.391958 -0.980836
-1.332369 -0.568724 0.525079
-0.733692 -0.510928 -0.434351
0.881109 0.107079 -0.481110
0.633556 0.643117 0.093446
0.636890 -0.505898 -1.132447
-0.884075 -0.062209 0.168118
0.487852 -0.631398 -0.284487
0.998013 0.014628 -0.366874
-1.205870 -0.491584 0.497701
0.093201 0.259248 -1.492124
-0.552706 0.270095 -0.440076
-0.657982 -0.575138 0.247927
0.384496 -0.933920 -1.205507
0.242191 0.402379 -1.212937
0.137948 -0.174640 0.181584
-0.028922 0.536792 0.090300
0.880311 -0.203052 -0.092722
0.388485 1.119343 -0.643699
-0.986063 -0.341093 -0.064703
-0.879471 -0.499919 0.396754
-0.627691 -0.119201 0.366421
-0.098830 -0.114125 0.267810
0.628505 -0.697589 -0.426851
-0.835693 -0.217302 -0.298783
0.148888 -0.145549 -1.622401
0.256138 -0.909078 -0.924841
-0.501980 0.371312 -0.245896
0.446389 1.201257 -0.521736
0.957665 0.528239 -0.159690
0.394470 -0.939125 -1.097339
0.594568 0.905209 -0.468512
-0.203756 -0.673150 -1.039761
-0.498885 0.267225 0.109185
-0.143186 0.653863 -0.121169
0.926386 -0.719680 -0.841800
0.021947 0.029700 -1.708118
0.611836 -0.234408 -1.028081
0.150489 0.870988 -0.154163
0.290086 -0.350559 -1.532216
-0.229028 0.665227 -0.645273
-1.221254 -0.455137 0.472848
-1.277443 -0.511484 0.421584
-0.400995 0.316203 -0.819841
0.080490 0.233589 0.229468
-0.693017 -0.064025 -0.498877
-1.069664 -0.327543 0.424263
-0.372671 -0.461711 0.226962
-0.959684 -0.140534 0.176699
0.615996 -0.599807 -0.300309
-1.289907 -0.579499 0.441181
-0.907128 -0.081680 0.120453
0.803562 -0.724509 -1.014019
0.129047 -0.575773 -0.074897
0.919711 -0.863577 -0.924694
-0.133671 0.210504 -1.452334
-1.280182 -0.564624 0.415536
-0.050691 0.321738 0.210934
-0.449114 0.356002 -0.620196
-1.107151 -0.525744 0.466454
-1.111333 -0.458145 0.131253
0.082171 0.342653 0.203544
-1.052239 -0.387673 0.461529
0.744299 -0.467215 -0.964199
-0.881767 -0.099549 -0.083180
0.899752 0.623872 -0.190768
0.146734 0.880957 -1.099851
-0.105599 -0.556708 -1.323859
-0.094898 0.804663 -0.417315
-1.043598 -0.246902 0.168276
0.040903 0.775075 -1.300320
-0.012774 0.716828 -0.084354
-0.758804 -0.162309 0.381633
-1.034017 -0.585196 0.390787
0.293893 0.115981 -1.288107
-0.208030 0.667761 -0.281284
-1.060002 -0.478115 0.047818
0.368004 0.136727 -1.175061
-0.283469 0.233025 0.233483
-0.301891 0.030039 -1.199252
0.345029 -0.488923 -0.080221
1.089126 0.361922 0.025562
-1.267581 -0.594308 0.459610
0.664022 0.692402 -0.481471
0.184327 -0.336301 -1.671080
-0.339020 -0.274430 -1.135701
0.451208 -0.219123 -1.242249
1.152613 -0.494311 -0.413766
0.742288 0.251076 -0.599245
0.988287 -0.733487 -0.763320
0.383041 -0.780394 -1.623807
-1.227416 -0.442868 0.390882
1.062152 0.531794 -0.013465
0.019563 0.400977 -1.521334
-0.141596 0.177239 -1.448745
-0.244494 0.538421 -0.935325
0.809286 0.730747 -0.261080
-0.701755 0.144356 -0.006723
-0.104091 -0.390562 -1.448671
-1.222049 -0.593493 0.453489
-1.083905 -0.539374 0.106451
0.183169 -0.038112 0.203984
0.704630 -0.794163 -0.607418
-0.827422 -0.003460 0.142575
-0.524092 -0.688743 0.024935
-0.143147 0.303748 0.213199
0.044656 0.802115 -1.281290
-0.139540 -0.206168 0.259621
0.272191 0.689635 -1.024413
-0.103677 0.370300 0.183353
0.500056 -0.129696 -1.128958
-0.954476 -0.141523 0.230264
0.791319 -0.949944 -1.001360
0.090952 0.219320 -1.515673
0.283912 -0.519590 -1.627285
0.841240 -0.377918 -0.190163
-1.008500 -0.358494 0.451277
0.084401 -0.453585 0.053051
-0.302258 -0.692899 -0.859070
-0.828553 -0.490734 -0.304139
-0.640372 0.214629 -0.077014
0.312690 -0.332419 -1.491689
0.007947 0.823066 -0.230261
0.745495 -0.339893 -0.897363
0.029114 -0.569546 -0.027472
-0.097668 -0.194780 0.249917
-0.271587 0.448766 -0.990310
0.645961 -0.071686 -0.897613
0.243743 -0.798832 -0.458479
0.108905 0.901889 -1.141415
0.181923 -0.689395 -0.238206
-1.315498 -0.542829 0.511524
0.373076 0.362024 -1.052709
-0.849581 -0.282504 -0.295785
0.773579 0.066405 -0.650544
-0.100416 -0.024993 -1.550331
-1.320531 -0.583419 0.505505
-0.425125 0.454898 -0.381783
0.116588 0.040585 -1.571749
1.063686 0.508436 -0.023303
-0.032627 -0.777831 -1.099868
-0.479030 -0.758251 -0.283858
-0.879197 -0.147508 0.343095
-0.668734 -0.122586 0.368354
-0.363533 -0.667780 0.006660
-0.684482 0.016312 0.280076
-0.126963 0.700703 -0.188587
0.833059 1.047020 -0.066306
-1.211168 -0.445525 0.331560
0.121233 -0.360930 -1.770888
-0.217343 0.603964 -0.899098
-1.336265 -0.565439 0.523917
-0.919196 -0.256521 -0.154944
-0.717504 0.082578 0.160147
0.630663 -0.052182 -0.908770
-0.883902 -0.463229 -0.231683
-0.178270 -0.657297 -0.049426
-1.083054 -0.449774 0.083876
0.333255 -0.535617 -0.117998
0.443158 0.723524 0.063898
0.200083 0.257602 -1.345252
0.001728 0.458300 -1.516636
-0.858724 -0.515868 -0.244674
-0.745941 -0.663466 0.150033
0.275876 0.593019 -1.068784
-0.547345 0.015804 0.315328
0.649932 0.232510 -0.736390
0.777370 0.000773 0.033229
-0.524179 0.272644 -0.535605
-0.336717 -0.542571 0.148560
-0.433926 0.432780 -0.168166
-0.548596 -0.042867 -0.771245
-0.728175 -0.706537 -0.072283
-0.824084 -0.618008 0.262380
0.244915 1.197238 -0.784638
-0.574603 0.126890 -0.602485
0.584637 0.659219 -0.608172
-1.153503 -0.524434 0.482735
0.610606 -0.342677 -1.085210
1.101693 0.396678 -0.027992
-0.150878 -0.681573 -1.105895
1.152198 0.278131 -0.018882
-0.567862 -0.708130 -0.407031
0.180065 -0.580858 -0.101191
0.183956 0.681761 -1.150389
0.256188 0.842189 -0.059138
-1.088145 -0.300626 0.205329
0.186377 0.259933 -1.363001
0.271376 0.983584 -0.203879
-0.240722 -0.806966 -0.555373
-1.055359 -0.609070 0.135814
0.477880 -0.429967 -1.313332
-0.519952 -0.516617 0.245024
-0.224354 0.494870 0.034616
0.076905 -0.245303 -1.772955
-0.664809 -0.040518 0.329636
-0.431172 0.335501 0.074157
-0.745076 -0.250373 0.404458
0.499754 -0.846397 -0.644956
0.547340 0.740550 0.062676
0.641431 0.109700 -0.811011
-1.200689 -0.453343 0.480619
-1.041766 -0.259723 0.357225
-0.218225 -0.802488 -0.674097
0.061146 -0.716424 -1.368291
-0.695808 -0.110171 0.362520
-1.067719 -0.586140 0.403403
-1.348335 -0.577685 0.525161
0.185292 -0.794567 -1.408038
-0.281925 -0.152753 0.310015
0.262524 -0.430769 -1.611372
0.914855 -0.776145 -0.886644
-0.071453 0.531104 0.079815
0.380862 0.339382 -1.053540
-0.066505 -0.827330 -0.499657
-0.458858 -0.732202 -0.106629
-0.989763 -0.407833 -0.071296
-1.279157 -0.503669 0.488317
-0.722839 -0.019656 -0.398518
-0.996777 -0.651045 0.198071
-1.063327 -0.257355 0.242754
0.406042 0.178052 0.174246
0.710331 -0.975725 -1.271480
0.769814 -0.511588 -0.951654
-0.051302 0.861259 -0.836837
0.378171 -0.915651 -0.866514
0.787223 0.034316 0.040915
-1.251278 -0.571215 0.494151
0.633163 -0.105101 -0.932407
-0.458115 0.020788 -0.916575
0.628020 -0.714206 -1.251350
-1.037821 -0.235814 0.303826
-0.474951 -0.192716 0.352471
0.482504 1.146134 -0.249348
-0.597382 0.217876 0.067994
-1.101159 -0.341928 0.175414
-0.232177 0.599800 -0.146709
0.044940 0.376952 -1.498563
-0.089410 0.775621 -0.297265
0.340772 0.526754 -1.013020
-1.239282 -0.593157 0.459826
0.477883 -0.319293 -1.256666
-0.983103 -0.199219 0.324409
-0.842068 -0.271511 -0.306455
0.773099 0.705689 -0.323920
0.021011 -0.315501 -1.675633
-0.068131 0.234469 -1.565287
-1.298933 -0.587207 0.490042
-0.985221 -0.226515 0.018765
-1.141934 -0.448871 0.186787
0.421013 0.774999 0.034776
-1.027361 -0.217769 0.260689
0.132266 0.309606 -1.412353
0.335945 0.046572 0.177131
-0.626882 -0.671158 0.095629
-0.011531 0.850958 -0.325968
0.564500 -0.809272 -1.387807
0.457664 -0.882120 -1.572754
0.266097 -0.657960 -1.722746
0.260047 0.255768 0.202027
-0.873848 -0.445994 0.418422
0.818757 0.905207 -0.158674
0.088144 0.053468 -1.604464
-0.607074 -0.093006 -0.680655
-0.276737 -0.105448 -1.257125
0.338469 0.441653 0.163056
-0.048932 0.235698 -1.600106
-0.683917 -0.698801 0.033733
0.677385 0.150409 0.102083
-0.674732 -0.472370 -0.545645
1.094499 -0.380270 -0.435698
0.246974 0.872047 -0.092302
-0.428311 0.438781 -0.171513
-0.926642 -0.190802 -0.087374
-0.727137 -0.686648 0.081431
-1.052573 -0.285526 0.120610
-1.027095 -0.517216 0.009282
0.557457 0.987148 -0.477850
0.412077 -0.330580 0.009244
-0.831126 -0.422971 -0.325853
-0.296672 0.342502 -1.043512
-1.047254 -0.364092 0.453061
-1.173024 -0.530469 0.238050
-0.256931 0.576361 -0.818609
0.298951 1.158863 -0.467324
-0.178371 0.064542 0.287016
-0.645200 -0.162946 0.378443
0.281549 -0.827053 -0.537088
-1.147262 -0.508552 0.485198
0.143882 0.646620 -1.223763
-0.967354 -0.655994 0.193651
-0.831974 -0.371312 -0.332947
0.756321 0.398561 -0.504345
-0.750525 -0.700625 -0.000370
0.929985 -0.655240 -0.803836
-0.558777 0.244185 0.075748
-0.262259 0.638794 -0.439944
-1.090260 -0.499656 0.470377
-0.046922 0.866341 -0.840025
-0.765313 -0.646875 -0.237268
-0.469441 0.299435 0.090127
0.935642 -0.673525 -0.518474
0.677152 -0.465311 -0.194152
-1.134168 -0.533653 0.472375
0.380740 1.111605 -0.283648
0.968270 0.173902 0.023790
-0.182259 0.024483 -1.409325
-1.268180 -0.573311 0.403222
0.128600 -0.722653 -1.459580
-1.176819 -0.415670 0.279825
-0.158411 0.737795 -0.384360
-0.010127 0.474028 -1.524968
-1.191021 -0.601118 0.329301
0.405572 -0.563636 -1.481697
0.817184 1.041539 -0.091053
-0.660041 -0.360512 -0.609955
0.968518 -0.179847 -0.507201
0.526196 -0.145579 -1.100963
-1.324208 -0.582476 0.498093
-0.400483 -0.371445 0.287227
-0.792704 -0.684334 -0.087415
0.454229 -0.391280 -1.326212
0.476594 0.882793 -0.643032
-0.693878 0.123591 -0.259648
-0.396751 -0.730672 -0.113514
0.556676 -0.392878 -1.185445
0.008219 -0.100181 -1.721140
0.600825 0.340245 0.137077
-1.062149 -0.636885 0.273528
-1.056014 -0.375913 0.053250
0.933604 0.296034 -0.311822
0.355860 -0.454853 -1.494708
0.410358 0.698415 -0.828967
-0.260738 -0.517391 -1.130106
-0.006644 0.254275 -1.632659
-0.656734 -0.672222 0.102953
-0.038851 0.830149 -0.331167
0.332684 -0.352101 -1.474134
-0.576460 0.286519 -0.226944
1.024269 -0.610828 -0.650794
-0.948752 -0.414960 -0.139177
1.108124 -0.534211 -0.495679
-0.685347 -0.349517 0.386703
0.597702 1.027973 -0.089764
0.732720 -0.416424 -0.954199
0.296069 0.777465 -0.946447
0.894849 0.463360 -0.279719
0.295939 -0.917513 -1.086034
-0.863095 -0.154228 0.356933
-0.666402 -0.249229 -0.608472
-0.800539 0.027638 0.115632
-0.942979 -0.658237 0.194794
-0.951029 -0.389655 0.448548
-0.221494 -0.795901 -0.368454
-0.923848 -0.113921 0.231419
0.781934 -0.305010 -0.829145
1.016756 0.219875 0.020206
-0.261257 -0.363722 0.241365
0.127631 -0.108736 -1.632932
0.229495 -0.165728 0.154704
-0.677386 -0.223040 -0.587117
0.414646 -0.915031 -0.854620
0.508361 0.506435 0.134424
-0.307470 -0.310821 -1.174375
-0.509302 -0.362219 -0.844967
0.070794 0.445802 0.163955
0.442278 -0.024995 0.131060
-0.305353 -0.563146 -1.023704
-1.347450 -0.577835 0.527304
0.429733 -0.335144 -1.331327
-0.379521 0.064879 -1.047174
0.851536 -0.935357 -0.966853
0.486867 -0.910787 -0.833197
-0.534805 -0.690550 0.024299
0.064531 -0.558007 -1.572979
-0.605847 0.252264 -0.215439
0.037894 -0.830360 -1.059122
-0.789306 -0.465904 0.381412
-0.228792 -0.748238 -0.857026
0.776887 -0.018422 -0.689399
0.161141 -0.832028 -1.270937
-0.439469 -0.562339 -0.827109
0.225269 -0.901394 -1.044054
-1.171582 -0.610005 0.396740
0.314549 -0.917815 -0.928572
0.360217 -0.365980 0.006644
0.774640 -0.495215 -0.936601
0.055198 -0.867272 -0.861191
-0.189798 -0.227096 -1.381834
1.138911 -0.174220 -0.268830
0.592845 0.149612 -0.857725
0.181533 -0.414147 -1.714795
-0.287536 0.552140 -0.761142
0.498185 -0.089424 -1.110926
-0.406995 -0.694484 -0.695928
0.541311 0.432111 -0.784321
-0.767130 -0.010220 -0.276369
0.148948 0.215602 -1.437423
-0.982872 -0.423449 -0.082772
-1.062868 -0.367828 0.070329
-0.881735 -0.311858 -0.245238
0.299251 0.392969 -1.138896
-0.056563 0.800557 -0.291106
0.227690 0.931032 -0.962330
-0.712386 -0.305656 -0.532560
-1.178804 -0.582006 0.453602
0.095527 0.590944 -1.319095
0.479226 0.297665 -0.938955
-1.138592 -0.620506 0.308430
-1.196785 -0.607782 0.404767
0.857174 -0.799363 -0.978248
-0.491552 -0.737892 -0.126085
-0.777952 -0.609768 0.255851
0.303760 -0.317955 -1.496627
0.044753 0.341959 -1.516736
-0.937337 -0.663376 0.140163
-0.819537 -0.485106 0.382649
0.372015 -0.861598 -1.539549
0.253144 0.866962 -0.959953
-0.722282 -0.364142 -0.510518
0.999517 -0.097545 -0.422223
0.202937 -0.318620 -1.636308
-1.270010 -0.575312 0.498144
0.170675 -0.670076 -0.206095
-0.670893 -0.351649 -0.594587
-0.139374 0.635754 -1.088924
-1.149821 -0.446026 0.482332
-1.014564 -0.312146 0.429763
0.624786 0.771148 -0.495382
0.416429 -0.248729 -1.305474
-0.741378 -0.678475 0.109716
-1.167709 -0.539077 0.233003
-0.943401 -0.358242 0.445249
-1.192627 -0.534370 0.492081
0.729146 -0.991153 -1.253376
0.649498 -0.980300 -1.357896
0.155263 0.354970 -1.357346
-1.143971 -0.505659 0.484860
-1.147091 -0.388842 0.236281
-1.052433 -0.436190 0.468890
0.343799 1.147418 -0.691082
-1.077183 -0.513275 0.084100
-0.687656 -0.708834 -0.178758
-0.234222 0.011800 0.301183
1.135069 -0.354855 -0.289313
-0.787638 -0.498463 -0.361457
0.206251 0.719865 0.023882
0.501637 -0.059942 0.102129
-0.409190 0.124478 0.275246
0.993297 0.599392 -0.074018
0.822563 0.175250 0.066308
-0.515790 -0.006017 -0.818311
0.792663 -0.837448 -1.086902
0.089373 0.789496 -1.225950
-1.341855 -0.578359 0.516429
-0.761511 -0.367572 0.404553
-1.308492 -0.576608 0.465501
0.665843 -0.904924 -0.839947
0.825649 0.860585 -0.171994
-0.647701 0.178413 -0.299581
-0.697882 -0.709052 -0.023312
1.022771 -0.224115 -0.454883
0.352227 0.734588 -0.890786
0.059114 0.993179 -0.879699
0.845874 -0.236532 -0.705720
-0.591413 -0.732507 -0.243760
-0.446566 -0.101662 -0.969651
0.102570 1.047310 -0.804197
-1.055266 -0.344874 0.442109
0.327948 0.671005 0.078423
0.418266 -0.413925 -1.387508
-0.345611 0.463123 -0.041630
-0.894662 -0.663760 0.176660
0.231297 0.833835 -1.007106
0.222022 -0.148734 -1.522957
-0.324065 0.540188 -0.636447
0.782450 -0.794925 -1.079247
-0.483143 -0.446733 0.278714
-0.039612 -0.081580 0.257108
-0.285801 -0.797027 -0.428843
-0.898138 -0.593939 0.324917
-0.613484 -0.310476 -0.693059
-1.147325 -0.409223 0.463575
-0.691089 0.007994 -0.445956
0.298601 0.811912 -0.017544
0.638673 0.936131 -0.391725
-0.275445 -0.491674 -1.128359
0.767165 -0.719065 -0.512230
0.890136 0.261827 -0.389410
-0.683357 -0.330097 -0.578007
0.912923 -0.341649 -0.666871
-0.890200 -0.265812 0.418788
0.505677 -0.544068 -0.196655
0.405362 -0.105560 -1.247472
0.564267 1.250456 -0.333637
0.330554 0.179431 -1.204956
-0.772535 -0.545537 -0.351365
0.454291 -0.145881 -1.200492
0.405225 -0.751408 -1.578308
1.080643 -0.469393 -0.500475
0.642121 0.731307 -0.491822
0.856648 -0.855607 -1.007770
0.822636 -0.013479 0.013438
0.888113 0.080509 -0.485033
0.514128 1.151998 -0.453337
0.222826 0.983814 -0.247410
-0.787367 0.045360 0.089295
-1.094441 -0.488540 0.104554
-0.673437 -0.364057 0.379824
0.642681 -0.118669 -0.926200
0.870531 -0.389882 -0.750151
0.803075 0.876868 -0.194855
-0.218680 0.686106 -0.572542
-0.841928 -0.585439 -0.211631
0.810811 0.767208 -0.240306
-0.600529 -0.005381 -0.651783
-0.731753 -0.613147 0.232756
-0.597531 -0.462207 -0.667327
0.415000 0.304755 0.172781
-0.957708 -0.171181 0.026920
0.175063 -0.002260 -1.512869
0.147141 0.235517 -1.429725
-0.466642 0.406673 -0.361210
0.453468 0.066828 -1.092732
-0.229835 0.489934 -1.047241
-0.524980 -0.391467 0.321922
0.173147 -0.051554 -1.540752
-1.000433 -0.522030 0.429434
0.358307 0.029958 -1.243124
0.429285 0.784046 -0.758969
0.593233 1.097120 -0.372106
0.411955 -0.094503 -1.232700
-0.135629 0.624511 -0.065233
-0.579733 -0.627669 0.151956
-0.227456 0.484451 -1.060272
0.305609 -0.355682 -1.513386
-0.099216 0.700343 -0.147748
0.016169 0.941405 -0.585375
-0.978840 -0.599332 0.350477
-1.003890 -0.564694 0.006102
-0.774501 -0.696137 0.014862
0.392904 -0.900802 -1.441587
0.045665 0.963845 -0.545258
0.917088 0.630289 -0.163524
0.301645 -0.237102 0.100524
0.274227 -0.897043 -0.792782
-0.361119 0.305945 0.158114
0.713786 0.272155 -0.627844
-0.800320 -0.671914 -0.121457
0.310162 -0.845200 -0.592817
0.686152 0.370023 0.119971
-0.024540 0.423113 0.165445
0.042937 0.745397 -0.077762
1.016166 -0.091158 -0.395945
-0.653443 -0.613921 -0.455407
0.052842 -0.280796 -1.739363
-0.524424 0.105536 -0.735713
0.698481 0.853096 -0.351580
0.918040 0.779580 -0.085777
0.719912 0.650603 -0.425628
0.106528 0.565936 -1.316694
0.742935 -0.864409 -0.759415
0.974782 -0.391820 -0.253804
0.515131 1.207339 -0.300134
0.988216 -0.004268 -0.038450
0.576231 0.784703 -0.555547
0.497990 0.211368 0.155294
0.438246 -0.255087 -1.278576
-1.268345 -0.495568 0.487555
0.435910 -0.382097 -0.033659
0.620002 1.057464 -0.355413
-0.579929 -0.339036 -0.741187
0.158488 -0.766914 -0.362785
0.960252 -0.199620 -0.120536
-0.875405 -0.316340 0.430619
0.008140 -0.166029 0.225378
1.073122 -0.631219 -0.593717
0.221504 1.083353 -0.892898
-0.957583 -0.138108 0.164531
-0.973951 -0.503842 0.429313
-0.615405 -0.101700 0.360724
0.594201 -0.176149 -1.022628
0.540826 -0.301116 -0.021761
0.955258 -0.602611 -0.741964
-1.138214 -0.550712 0.464381
0.762503 0.948507 -0.214251
0.124493 -0.044395 -1.604329
-0.943098 -0.291134 -0.125608
-1.164826 -0.445672 0.481881
-0.034737 -0.830481 -0.917600
-0.540089 0.326319 -0.272634
-0.370336 -0.767261 -0.250810
-1.232038 -0.512622 0.504287
-0.284133 -0.754568 -0.748607
0.763001 0.684425 -0.348762
-0.718159 -0.700288 -0.160953
-1.120807 -0.442842 0.479843
-0.807161 -0.411000 -0.366446
-1.099960 -0.440238 0.113998
-0.255362 -0.073305 -1.292448
-1.115395 -0.546684 0.458191
-1.012898 -0.215370 0.307930
0.967524 -0.130908 -0.483520
-1.285166 -0.511872 0.441420
-0.360139 -0.691985 -0.772557
0.163005 0.207789 -1.421996
0.355439 0.458526 -1.027680
-0.446517 0.430373 -0.236823
0.697289 1.186699 -0.182436
0.656735 0.977040 -0.345820
0.440277 0.466936 -0.906124
-0.038022 0.334070 -1.583470
0.127773 0.515396 -1.313207
-0.182600 0.694534 -0.295899
0.419161 -0.891963 -1.523779
0.787708 -0.586383 -0.965216
-0.587480 -0.729451 -0.280259
-1.136310 -0.605998 0.254011
0.696016 -0.951552 -0.999360
0.779340 0.548750 -0.395640
0.409353 1.134562 -0.607066
0.870794 -0.875397 -0.823786
1.003633 0.024815 -0.353891
0.539967 -0.248538 -1.134641
-0.313668 0.580791 -0.381778
0.245648 -0.907246 -0.922526
-1.284473 -0.572567 0.426726
-0.800508 -0.560525 -0.297269
-0.549044 0.154231 0.212547
-0.336336 0.545962 -0.273011
1.038273 0.514151 0.049120
-0.839219 -0.658994 0.186441
0.446636 -0.234153 -1.256263
-0.235976 0.424021 0.105150
0.430608 -0.232227 -1.277429
0.349371 -0.668856 -1.613237
0.714981 0.197835 -0.664240
0.731839 0.699521 -0.384101
1.062113 -0.584439 -0.584983
0.856503 0.814829 -0.152777
-0.047954 -0.490418 -1.466063
0.152491 0.196377 -1.442369
-0.615671 0.156132 0.159456
0.142641 0.148718 -1.480382
-0.616985 0.240297 -0.092182
0.966444 -0.549368 -0.699245
0.220832 -0.455687 -0.002895
-0.552295 -0.313885 0.356098
0.413833 1.207617 -0.396170
-0.370795 0.512664 -0.464142
0.586215 0.663985 0.089876
-1.017244 -0.646161 0.232807
0.187463 0.325134 -1.328120
0.007763 0.760883 -0.127270
-0.440735 0.143090 0.259545
-0.454037 0.014140 -0.926807
-0.773373 -0.621825 0.236821
-0.449528 -0.538980 0.197691
-0.030038 0.564458 0.067444
0.248833 0.242443 0.204911
-0.615354 -0.023946 0.327949
0.187045 0.646984 0.069583
0.097462 -0.557586 -0.043230
-0.082292 -0.703049 -0.158093
-1.174745 -0.396470 0.430848
0.909789 -0.373486 -0.687501
0.988612 -0.312276 -0.201242
0.109848 -0.277911 -1.744120
-1.075326 -0.579811 0.125735
0.684407 -0.449400 -1.037853
0.214654 0.531087 0.135252
0.457918 -0.882980 -0.733998
-0.171073 0.291651 0.216426
0.289168 -0.170628 -1.441368
-0.832044 0.002102 0.063893
0.310932 -0.477786 -1.568541
0.615052 0.402724 0.132558
0.271936 0.329990 -1.208888
0.367722 0.909126 -0.780015
0.686721 -0.296683 -0.074546
0.245747 -0.849091 -1.362888
0.140639 0.398338 -1.355355
-1.018177 -0.356542 -0.010445
-0.253610 -0.244232 0.284124
-0.512562 -0.346193 -0.844876
-0.968560 -0.543252 -0.063044
-0.337375 0.424315 -0.845048
-0.199696 -0.807638 -0.683484
-0.577569 -0.187356 0.372659
-0.541124 0.315402 -0.341163
-0.198417 0.628313 -0.912967
0.398124 -0.448281 -1.432933
-0.447477 0.127946 0.267597
0.322341 0.488761 -1.057943
-1.075502 -0.564231 0.429129
-1.238322 -0.600883 0.417554
0.085778 -0.872521 -0.908153
0.137389 0.913120 -1.096300
0.809457 0.953017 -0.147050
-1.088088 -0.471288 0.475234
-0.398357 0.305819 0.138152
0.135101 -0.294954 -1.717944
0.806911 0.382331 0.094890
0.605247 -0.017691 0.082467
-1.304929 -0.584978 0.498197
0.839394 0.814172 -0.176759
-1.292930 -0.547182 0.516989
-0.082828 0.676753 -0.091047
-1.249595 -0.507772 0.365857
-0.455621 -0.120286 -0.956369
0.490917 1.059269 -0.153960
-0.601592 -0.506545 0.285202
-0.053534 0.170531 0.255196
-0.296577 0.008777 -1.213084
0.850208 -0.043465 -0.007073
0.262360 -0.905892 -0.869010
1.111496 -0.375572 -0.409802
-0.614866 -0.148890 0.372742
0.535056 -0.153167 -1.092603
-1.265493 -0.566343 0.394336
-0.386827 0.487281 -0.498142
0.908089 0.909085 0.004562
0.769785 0.341009 0.101217
-0.262171 0.523869 -0.906321
1.068981 -0.699646 -0.606175
-0.899550 -0.411692 0.434550
0.553267 0.941982 -0.041926
0.407460 -0.003695 -1.192422
0.453640 0.786513 0.033068
0.686749 -0.571196 -1.096970
0.520410 -0.718601 -0.414343
-0.083188 0.619337 -0.015283
0.623354 -0.768944 -0.533732
-0.143852 -0.202490 -1.459980
-1.327315 -0.551909 0.511067
1.177381 0.037578 -0.107232
0.996935 0.609970 -0.063575
-0.463826 0.145398 0.252723
-0.805462 0.016235 -0.089321
-1.007044 -0.466745 0.453829
-0.956622 -0.659289 0.164455
-1.189463 -0.610184 0.360719
0.557063 -0.278991 -1.126605
0.576096 0.988480 -0.451408
0.994526 0.592752 -0.075719
-0.998180 -0.619235 0.067174
0.482372 0.690366 -0.733561
-0.322856 0.410713 -0.904295
-0.446452 0.200532 0.216096
0.008479 -0.774045 -1.174894
0.159138 1.095626 -0.669721
-1.211242 -0.595122 0.446557
-0.775298 -0.692704 -0.077041
-0.867960 -0.636853 0.246373
0.788825 0.631652 0.081920
0.118533 0.561993 -1.302121
0.697489 -0.755914 -1.176695
-0.267841 -0.730952 -0.148698
-0.997415 -0.188731 0.262349
0.992219 -0.570138 -0.674257
-0.010006 0.470719 0.140496
0.265415 0.603480 -1.077885
0.138777 0.628784 -1.239949
0.681802 0.503781 -0.553464
0.698916 -0.606469 -1.098213
-0.367638 0.362194 0.092803
0.020233 -0.336370 0.152880
-0.404943 0.478850 -0.302039
1.082275 -0.654655 -0.554551
-0.173550 0.669453 -0.200747
0.320679 0.715494 -0.944162
-0.558962 0.142957 -0.623314
-0.349435 -0.711131 -0.751200
0.414029 0.977331 -0.681099
-0.546755 -0.358652 0.341735
0.448163 0.896897 -0.675103
1.073591 -0.700202 -0.628385
0.721444 0.316485 -0.594565
-0.472678 -0.666466 -0.646882
0.179307 -0.530518 -0.050367
0.184297 0.234838 -1.378723
-0.125487 0.653848 -0.100082
0.694198 -0.239139 -0.916676
-0.488537 0.069993 -0.833874
-0.779483 -0.385746 0.405956
-0.742776 0.008243 0.253158
0.117593 0.991943 -1.083304
0.675067 -0.732335 -0.495426
0.463306 0.557411 -0.827978
0.109447 0.042141 -1.580820
-0.268698 -0.651161 -0.004833
0.656168 0.349693 -0.667778
-1.087414 -0.540030 0.451643
0.125351 0.647393 -1.248978
1.137374 0.045453 -0.158492
-0.097817 -0.453517 0.125167
-0.100005 -0.775171 -0.304837
0.401523 0.284034 -1.053322
-1.273356 -0.542220 0.400077
-0.718786 -0.373059 -0.514371
-1.281749 -0.501752 0.476736
0.481078 -0.904036 -1.551614
-0.884873 -0.491411 -0.218616
-0.782879 0.036438 -0.129863
-0.246430 0.593279 -0.817404
0.066167 -0.807203 -0.431720
-1.101342 -0.547817 0.452032
0.172987 1.119792 -0.748493
-0.434970 -0.766791 -0.367141
0.942038 0.281788 -0.307459
-0.055619 0.854659 -0.842983
0.499782 -0.152915 -1.141224
-0.812247 -0.615711 -0.217669
1.059362 0.015270 -0.281760
0.662408 -0.946011 -1.322500
-0.189871 -0.031476 -1.400923
0.275701 -0.057350 -1.401986
0.205791 -0.380844 -1.664219
0.472583 -0.892659 -0.767348
-0.537286 0.016914 0.315780
-0.319816 0.229835 0.229376
-0.912086 -0.668510 0.106162
-1.090651 -0.434432 0.475029
-0.894308 -0.067412 0.116115
-0.281355 -0.495638 0.166247
0.353322 0.674910 -0.919826
0.262210 0.927080 -0.142198
0.870536 0.757094 -0.162941
0.280683 -0.906539 -1.166371
0.078449 -0.728061 -0.260980
0.624565 0.853162 0.017808
-1.235126 -0.458538 0.380313
0.238744 0.191053 -1.325890
0.158156 0.216906 -1.424031
0.021635 -0.638032 -1.422074
-0.332861 -0.723324 -0.750354
0.723041 -0.352564 -0.125372
-1.252507 -0.474040 0.468854
0.274883 0.080996 -1.332290
0.938634 0.483453 -0.208920
0.835813 -0.489805 -0.849289
-0.924900 -0.266184 -0.148823
-0.188217 0.667646 -0.855114
0.355922 -0.067786 -1.296460
0.032796 0.738013 -1.330498
0.429112 0.608508 -0.849076
-0.771700 -0.218000 -0.418805
0.628518 0.284126 -0.739559
-1.311309 -0.572012 0.517265
0.012460 0.699752 -1.378192
0.551680 1.142879 -0.406107
-1.271046 -0.593671 0.444957
0.525902 0.066691 -0.992696
1.054786 -0.555415 -0.580250
-0.978408 -0.495116 -0.074491
0.342769 0.284804 -1.134128
0.540905 0.725448 -0.634706
-0.096891 0.217128 0.247314
-1.299412 -0.541317 0.515852
0.942736 -0.429389 -0.670587
0.031087 -0.555452 -1.526222
0.453310 -0.944360 -1.030616
-1.135791 -0.599175 0.240483
0.120523 0.944881 -0.304313
-0.580546 -0.275672 -0.750214
0.595608 0.612309 0.103650
0.842833 -0.655409 -0.924370
0.636195 -0.098491 -0.924833
0.629665 0.829356 -0.458839
0.117497 0.767282 -0.055056
0.451552 1.178419 -0.526293
0.772079 -0.605633 -0.996670
0.155492 0.066375 -1.504778
0.445108 0.517449 -0.873587
0.051836 0.801273 -1.271798
0.408939 -0.858545 -1.609658
-1.214714 -0.605681 0.407510
0.867668 -0.616172 -0.869959
-1.092777 -0.316757 0.188510
0.477118 -0.899623 -0.791565
0.986382 -0.283025 -0.535334
-0.903701 -0.203509 0.382570
0.987219 0.799036 0.019792
-0.870343 -0.080077 0.255812
-1.021812 -0.508090 0.444368
-0.764534 -0.568444 -0.342866
1.023536 0.195343 -0.239083
0.946180 0.798879 0.033675
-0.206645 0.680734 -0.328841
0.977479 0.202743 -0.298947
-0.566873 0.293299 -0.109056
0.767671 -0.561885 -0.980366
-1.248778 -0.594912 0.407464
-1.177779 -0.428200 0.468414
0.693054 -0.113155 -0.853759
-0.443796 -0.176487 -0.979352
-0.435267 -0.759065 -0.224890
0.058242 0.982057 -0.578957
-0.310738 0.225319 -1.101951
0.910437 0.269879 -0.357230
0.468855 0.845917 -0.672607
0.794378 0.949844 -0.169515
-1.059480 -0.633664 0.208594
0.570484 0.484204 -0.717333
-1.205077 -0.433419 0.457306
-0.240600 -0.043085 -1.315948
0.257655 -0.904530 -1.118433
-0.403404 -0.075178 -1.040649
0.038151 -0.822051 -1.089852
0.529516 -0.952908 -1.038077
0.144409 0.824598 -1.131917
-1.050260 -0.242830 0.275594
-0.517482 0.347327 -0.143055
0.112899 0.392041 0.186939
-0.519044 0.321833 -0.037290
0.382200 1.211622 -0.605141
0.091275 0.114669 -1.568804
-0.075181 -0.758514 -1.077981
0.035845 -0.859078 -0.665385
0.057271 -0.644671 -1.466353
0.690861 0.211629 0.108119
0.654045 -0.379714 -0.117561
-1.229303 -0.456736 0.365498
0.550091 -0.921407 -0.876842
0.347205 0.574004 0.122607
-0.326344 -0.020432 -1.166149
-0.641082 -0.571291 0.244993
-0.897406 -0.356772 -0.224377
0.016973 0.297846 -1.577712
0.627914 -0.295646 -1.037213
0.031205 0.118094 0.249858
-1.047780 -0.243775 0.201857
0.639990 0.511898 -0.607095
0.115667 0.788806 -0.079486
0.263858 -0.909438 -1.080778
-0.035210 -0.020942 0.262683
0.492824 -0.508213 -0.157329
1.013571 0.681623 -0.003899
0.983979 -0.585136 -0.693324
-0.329148 -0.746457 -0.173269
0.223863 0.704084 -1.083806
-0.891672 -0.671837 0.122598
-0.853114 -0.168537 0.371454
-0.106520 -0.781689 -0.321735
0.724925 -0.224731 -0.866834
-0.042076 -0.715377 -1.214185
1.014548 0.694321 0.003952
1.156833 0.043454 -0.132622
0.417466 0.531855 -0.904414
0.205841 0.998753 -0.289809
-1.062707 -0.279579 0.365579
0.978997 0.122036 0.006904
1.092986 0.438439 -0.018645
1.061141 0.018438 -0.277679
0.216252 -0.168296 0.158155
0.866002 0.486918 0.083538
0.498154 -0.402620 -1.271312
0.480388 -0.725574 -1.461204
-0.049601 -0.168756 0.242247
-0.943371 -0.265790 0.414683
-1.297068 -0.548810 0.439890
0.080611 0.507450 0.133928
0.386242 0.577790 0.121490
0.621783 1.226189 -0.266571
-0.064568 0.716101 -0.133005
-1.081265 -0.543543 0.104958
0.207222 0.971121 -0.243937
0.205242 -0.483035 -0.018791
-0.707091 -0.669127 0.125348
0.608648 0.580537 -0.615271
0.703228 -0.762285 -1.172025
0.356843 1.021844 -0.737344
0.028063 0.342661 0.204369
-0.826744 -0.659300 -0.113512
-0.009162 -0.426071 -1.569398
0.045078 0.419277 0.174203
-0.856383 -0.201346 -0.249633
0.673312 0.274982 -0.682333
0.471585 0.588991 -0.800369
-0.439814 -0.707237 -0.617765
0.309911 1.143719 -0.739810
0.269022 0.847294 -0.948077
-0.957922 -0.266542 -0.082128
0.467149 0.626460 -0.787316
-0.610379 -0.376190 -0.683694
-0.098061 0.806512 -0.441811
0.497335 -0.268523 -1.203792
-1.044618 -0.575525 0.076164
0.596256 -0.958062 -1.041276
0.345176 -0.464641 -1.514485
-0.273690 0.612352 -0.618288
0.362427 -0.207915 -1.359211
0.482095 0.807170 0.025715
1.019924 -0.301227 -0.498296
-0.788861 -0.233994 -0.392295
0.683858 0.089816 -0.762555
-1.227002 -0.481102 0.493029
0.361083 -0.171494 -1.342421
0.614793 0.407014 -0.695614
-1.225081 -0.461043 0.348429
0.383842 -0.707263 -0.343932
-0.201893 -0.321102 -1.333242
-0.109039 -0.531897 -1.341547
1.129471 0.035303 -0.174610
0.906509 -0.355828 -0.682994
-0.786106 -0.203897 0.397002
-0.288368 -0.797187 -0.441110
-0.933680 -0.219693 -0.098748
-0.182704 -0.605742 0.019345
-0.027805 0.318864 0.212602
0.477102 0.675614 -0.748396
-0.347695 -0.518410 0.174344
0.697186 -0.772075 -1.185386
-0.430439 -0.616878 0.106489
1.058173 -0.567268 -0.581637
-0.203944 0.662687 -0.800910
-1.207371 -0.421606 0.366008
0.111292 0.185906 -1.504669
-0.014735 -0.769169 -0.312638
0.465007 0.569726 -0.819323
1.172623 0.141132 -0.060792
-0.652360 -0.108832 -0.601812
0.679864 -0.926224 -1.288245
-0.551715 0.297906 -0.356464
-0.779594 -0.376597 0.407879
-0.278171 0.411299 -1.018010
-0.861001 -0.499862 0.389894
-0.506937 -0.524147 0.233686
-0.056525 0.812233 -1.001911
0.356363 -0.681835 -1.610219
0.791033 -0.975483 -1.159824
0.409148 0.201533 0.174732
1.057379 0.080140 -0.030882
0.273195 1.069030 -0.828791
0.553071 -0.867572 -0.711940
-0.469600 -0.442932 0.275842
-0.553925 -0.218040 -0.796195
0.655478 0.257200 -0.716084
0.277257 1.157722 -0.506856
0.518913 0.409562 -0.826820
1.016887 -0.812349 -0.754497
0.365452 -0.034766 -1.266385
1.035226 -0.429091 -0.542610
0.657920 -0.667497 -0.398445
-0.938978 -0.569552 0.368568
-0.073691 0.684965 -0.094288
0.838237 -0.806966 -0.679037
1.011049 -0.045970 -0.379882
0.461388 -0.858897 -0.665905
0.379034 0.737743 -0.852123
1.082945 0.051496 -0.230620
0.756134 0.284874 -0.562807
-1.084278 -0.620135 0.350244
0.887973 -0.141346 -0.598806
0.123954 1.036503 -0.542962
1.090222 -0.669493 -0.589680
-0.771804 -0.004112 0.244565
-1.000799 -0.420791 -0.053149
-0.692729 -0.306149 0.395117
0.315046 0.624793 -0.998382
0.357933 0.476561 -1.014999
-1.339367 -0.579806 0.515756
-0.667451 -0.356174 -0.599157
0.239742 -0.591753 -1.725276
-0.658276 -0.641876 -0.407991
-0.892506 -0.281008 0.424028
0.104698 0.966305 -0.378222
0.228803 0.356718 -1.254816
0.290921 -0.899779 -1.238556
-1.290641 -0.589563 0.479772
0.039467 0.952181 -0.516739
0.421362 -0.641349 -0.269581
-0.661150 0.060658 -0.462912
0.263554 -0.820362 -1.471869
-0.703527 -0.574071 0.267682
0.164934 -0.709463 -1.535276
0.466014 0.228091 -0.992833
-1.127857 -0.615256 0.373445
0.046608 0.664078 -1.349261
-0.843883 -0.014247 0.114372
-1.215058 -0.491626 0.498293
-0.635936 -0.366033 -0.646575
-0.398262 -0.420202 -0.989850
-0.123391 0.523474 -1.273519
1.115598 -0.395338 -0.414254
-1.060643 -0.637539 0.243126
0.402402 0.074862 -1.159194
1.177660 -0.068365 -0.161085
0.529895 -0.602198 -0.267763
-0.118875 0.273361 -1.455384
-0.927481 -0.167235 -0.056672
0.921002 -0.214420 -0.590570
0.557602 -0.948200 -0.997082
0.455753 -0.951986 -1.175682
-0.851396 -0.587643 0.313388
0.923876 -0.251584 -0.605624
-1.087042 -0.326187 0.412563
-1.306033 -0.586646 0.491572
-0.226136 -0.768862 -0.803837
0.707540 0.139502 0.091609
0.438194 -0.393145 -1.349328
1.041888 0.070517 -0.277624
0.675230 0.728096 0.067547
0.117569 1.032780 -1.062431
0.716329 0.513696 -0.500671
0.365283 -0.259722 -1.381787
-0.222304 -0.126641 0.298086
0.439076 -0.553856 -1.430386
-0.744016 0.047327 -0.250888
-1.008898 -0.573909 0.392808
0.271877 -0.911963 -1.074155
0.608721 -0.951864 -1.005487
0.578995 0.879742 -0.000531
0.358928 -0.565114 -0.157865
1.054531 -0.548889 -0.425900
-0.735674 -0.620812 0.223513
0.974364 0.416201 -0.193970
-1.041432 -0.371220 0.027563
-0.824887 -0.067054 -0.197625
-0.910412 -0.557529 -0.137906
0.977992 -0.242848 -0.526361
-0.755497 0.083399 -0.083911
-0.723657 0.026439 0.244791
0.759007 -0.120562 -0.766402
0.535239 0.432066 0.142809
-1.026062 -0.574223 0.399511
0.400985 0.673510 -0.854670
-0.425037 0.446266 -0.450723
0.394574 -0.636406 -1.534152
-0.594416 0.210616 -0.424521
-0.173983 -0.177628 -1.417250
0.216868 1.164144 -0.746633
0.881246 -0.553095 -0.818901
-0.361056 -0.755295 -0.197908
0.959971 -0.507577 -0.346936
-0.166994 -0.057841 -1.439602
0.110948 -0.574114 -1.625312
0.390106 1.269085 -0.556088
-0.598617 -0.513185 0.279065
0.829095 0.108300 -0.552370
-0.886849 -0.169054 -0.159791
0.956647 -0.126880 -0.081086
0.678971 -0.836587 -0.679307
-0.623948 -0.725819 -0.103461
-0.784424 -0.467655 -0.382147
0.856432 0.448266 -0.340540
0.431272 0.984571 -0.653563
0.527001 -0.953305 -1.042582
-0.614290 -0.118412 -0.675841
0.906433 -0.548149 -0.364578
0.692770 0.378267 0.118644
-0.026311 -0.744294 -0.254724
0.536369 1.121391 -0.438269
0.617732 0.402034 0.132124
-0.960010 -0.488417 -0.105320
0.504059 1.245292 -0.419490
-1.003272 -0.194197 0.156478
-1.052775 -0.587905 0.101636
0.758408 -0.770320 -1.099878
-0.340406 -0.316122 -1.121629
-0.140502 0.003226 0.285702
-0.198970 -0.206690 -1.371975
0.287461 -0.916453 -1.059886
0.376105 0.435643 -1.010833
0.821972 0.703437 -0.257528
0.317601 -0.753226 -0.393150
0.800997 0.185526 -0.551666
-0.559730 0.218093 -0.521948
0.841323 -0.748455 -0.974092
-0.163008 0.430221 0.129684
0.098482 0.650273 -1.284637
0.853154 -0.908378 -1.039615
1.056736 -0.452620 -0.524929
0.465557 1.261990 -0.464152
0.043748 0.912321 -0.367567
-0.554039 -0.698428 0.011075
0.714191 0.695550 -0.410524
-0.453485 -0.750024 -0.178643
-1.278871 -0.563996 0.413253
-0.935310 -0.334996 0.440562
0.293188 -0.431326 -0.012991
-0.532438 -0.734997 -0.370087
0.981484 -0.446350 -0.625719
-1.319045 -0.573931 0.519016
0.996928 0.706647 -0.014089
-0.350018 -0.242127 0.313466
0.480798 -0.934559 -1.457235
-0.183542 -0.761397 -0.896671
-0.206849 0.045153 0.293395
-0.807410 -0.439412 -0.358005
-0.637397 0.088771 0.230928
-1.270480 -0.567539 0.504446
0.613655 0.978949 -0.404381
-1.133745 -0.498026 0.483432
0.444757 -0.588876 -0.218199
-0.197105 -0.590350 0.042821
-0.745653 -0.699495 -0.101552
-0.031738 0.849679 -0.371465
0.279419 1.138302 -0.784725
-1.088834 -0.482652 0.473857
-0.586750 -0.333461 -0.731650
0.697592 0.237322 -0.668059
-0.449403 0.077851 -0.907385
0.175364 -0.176026 -1.601413
0.647295 0.563925 0.109369
0.094406 0.462280 -1.386515
1.155989 0.287862 -0.008661
0.467182 -0.434887 -1.330636
-0.466732 0.374219 -0.509316
-1.172554 -0.404058 0.445434
0.631857 0.184702 -0.785845
-0.973270 -0.201160 0.022140
0.116594 -0.875053 -0.731028
0.394374 0.425102 -0.990982
-0.838837 -0.097148 0.312414
-0.809725 -0.030582 -0.185088
1.042561 -0.758996 -0.701370
-0.476091 -0.442786 -0.860602
-1.310229 -0.533412 0.499523
0.539581 -0.752899 -1.393386
0.046953 0.968528 -0.564073
-0.685181 -0.143839 0.375703
-0.945843 -0.379893 0.447350
0.395848 -0.503530 -1.464365
-1.109738 -0.534298 0.463222
-0.694002 0.117562 -0.274578
1.119311 -0.099313 -0.257569
-0.161374 -0.053935 -1.448959
0.076285 -0.328366 0.136518
0.878306 -0.323251 -0.705294
-0.736567 -0.419793 -0.474148
0.283446 -0.157742 0.139736
0.327561 1.116331 -0.729439
-0.712982 0.088872 -0.271137
1.081478 -0.325556 -0.425682
0.154785 0.504432 -1.281489
0.050114 -0.705217 -0.211630
-0.992527 -0.278183 0.411863
0.831368 -0.875491 -1.052888
0.235887 0.862855 -0.985905
0.789580 0.413585 -0.450688
0.231449 1.171471 -0.834040
-1.094830 -0.573149 0.428710
-1.235784 -0.489462 0.348181
-0.255052 0.640073 -0.364983
-1.080409 -0.543935 0.103920
-0.444242 -0.163731 0.346767
0.207332 1.042575 -0.369233
0.196432 0.336638 -1.309834
0.344265 0.894990 -0.819671
0.648159 -0.956230 -1.021203
0.213605 -0.447689 -1.687643
-1.244227 -0.543467 0.352978
0.878546 0.500163 0.080835
1.083242 0.285775 -0.110269
-0.633197 -0.708324 -0.005144
0.453439 0.277036 -0.985155
0.359259 -0.361117 -1.442022
1.030135 0.130004 -0.263412
-0.843847 -0.574725 -0.220018
0.203499 0.859077 -0.103135
0.124174 -0.022692 -1.593659
-0.487880 0.152331 -0.778474
1.151590 -0.471133 -0.391407
-0.651328 0.185646 0.029104
-1.223150 -0.561332 0.327963
-0.288789 -0.293263 -1.208939
-0.237376 0.637528 -0.723937
0.191328 -0.361279 0.074456
0.605920 0.211508 -0.807968
-0.735115 -0.704843 -0.031752
-0.590846 -0.102909 0.360139
-0.714507 -0.090703 -0.471451
-1.142474 -0.484036 0.486926
0.853296 0.610330 0.076774
-1.305855 -0.574542 0.513349
0.435669 -0.320810 -1.315786
-0.876548 -0.050228 0.047039
-0.929374 -0.259714 0.413327
-0.755915 -0.154959 -0.423917
-1.302914 -0.535850 0.511632
-1.199084 -0.525085 0.496521
0.481515 -0.069703 -1.123868
-0.793887 -0.390535 -0.391736
0.628950 -0.186911 -0.980112
-0.765134 -0.064112 0.317997
-0.166727 0.236620 0.241230
-0.411146 -0.711137 -0.654248
-0.798378 0.026899 -0.086072
0.491160 0.412854 -0.863490
-0.984568 -0.553658 -0.031567
0.595575 -0.258737 -0.017767
-0.652728 -0.714959 -0.220906
-0.298405 -0.111779 -1.221112
0.421655 0.354149 0.167887
0.032328 -0.649795 -1.422923
-1.042778 -0.439236 0.016658
0.532408 0.447175 -0.788913
-0.934884 -0.127474 0.047989
0.772552 -0.983411 -1.189424
0.504700 0.254677 -0.925757
-0.138534 -0.675633 -0.092284
0.202366 -0.382302 -1.669700
0.571037 0.980427 -0.462524
-1.242386 -0.480007 0.487266
-0.696081 0.126628 0.094517
0.235461 -0.614027 -1.742594
-1.104427 -0.357933 0.165844
-0.874737 -0.474594 0.407690
0.479064 0.408920 -0.882220
0.040358 -0.668123 -1.410298
-0.851436 -0.024475 0.005957
0.918295 0.700581 -0.125869
1.140444 -0.235813 -0.298244
0.724992 -0.165778 -0.836561
0.021411 -0.860641 -0.711791
0.747106 -0.949760 -0.995739
0.681600 -0.952785 -1.004226
0.587440 0.425007 -0.724205
0.478089 0.525618 -0.823825
-1.149280 -0.356339 0.378782
0.807684 -0.651129 -0.438582
-0.759723 -0.381834 -0.447688
0.851283 -0.410579 -0.219206
-0.090090 -0.720168 -0.185688
0.641569 0.419025 -0.652460
-0.179596 -0.301648 -1.374900
0.645237 -0.800501 -0.597334
0.635909 -0.935789 -1.353889
0.372657 0.118398 -1.178015
0.508091 -0.359445 -1.235475
-1.235136 -0.462430 0.470892
-1.171227 -0.579947 0.266987
0.707266 0.067988 -0.741379
-0.085981 0.419291 0.157596
-0.438675 0.104032 -0.914604
0.468323 0.400476 0.156006
-0.734686 -0.372576 -0.489235
-0.330056 0.011044 0.313511
0.858870 -0.125340 -0.630833
-0.059778 0.452072 -1.473987
0.247059 0.785304 -0.013787
-0.694427 0.111139 0.137040
-1.319282 -0.554586 0.478747
-0.923382 -0.160229 -0.058096
-0.235041 -0.805872 -0.451105
0.723477 0.190104 -0.656457
0.104137 0.890859 -1.153651
0.555987 1.219632 -0.360861
0.039564 0.833063 -0.206990
-1.248892 -0.486663 0.490524
0.411074 -0.697122 -0.339814
0.747016 0.457745 -0.486905
-0.860355 -0.319474 -0.283915
0.684359 -0.161254 -0.890401
-0.743808 -0.555712 0.302098
-1.322302 -0.582211 0.509843
0.260724 1.182448 -0.787962
-1.158778 -0.578044 0.246660
-0.531737 -0.729794 -0.395424
-0.981961 -0.204996 0.041768
-1.178312 -0.541508 0.484396
-0.045426 -0.368510 0.159574
0.521277 0.303056 -0.878079
-1.013329 -0.317162 -0.000297
1.051420 -0.090746 -0.097652
-0.053380 0.767175 -1.121733
-1.012566 -0.214404 0.129124
-0.241819 -0.546629 -1.132739
0.683061 0.508980 -0.549062
-1.238649 -0.454496 0.406193
0.447845 0.207049 -1.028716
-0.191612 -0.654500 -0.040136
0.319947 0.484538 -1.063414
0.280579 0.027480 -1.351815
-0.980221 -0.218508 0.358036
0.069819 0.380750 -1.462235
-0.631448 -0.080778 -0.629804
0.448211 0.044710 0.145797
0.831962 -0.047434 -0.002450
-1.206414 -0.588295 0.329241
0.384098 -0.137004 -1.292957
-0.448336 0.383702 -0.559762
-1.332860 -0.570686 0.499047
1.092263 -0.205019 -0.349068
0.978332 -0.807764 -0.732298
1.107527 0.025870 -0.067040
-1.034958 -0.625366 0.324095
-0.375583 0.430274 -0.717653
0.481781 0.281738 0.160983
-0.973906 -0.591969 0.358119
-0.331197 -0.678026 -0.022577
-0.776691 -0.683853 -0.120938
0.333025 -0.883427 -0.721190
0.641046 0.338684 0.128955
0.951463 -0.087493 -0.483491
0.372513 0.537582 -0.963609
0.415155 0.416163 -0.966837
-0.409144 -0.251862 -1.029347
0.604784 0.525153 -0.648964
0.074083 0.289944 -1.502831
-0.457419 -0.739792 -0.133908
0.896639 0.440909 -0.288740
0.877984 -0.787284 -0.943304
0.658350 -0.760675 -1.233224
0.912179 -0.686978 -0.844693
-0.489083 -0.602544 0.148042
0.887265 0.411177 -0.316916
-1.228762 -0.520897 0.504293
0.761044 -0.569628 -0.993488
0.354098 0.868576 -0.819604
-0.708931 -0.299639 0.399368
1.093664 0.014703 -0.234643
0.364730 0.718828 0.057745
-1.018108 -0.645435 0.240195
-0.232993 0.325045 0.186728
0.822797 0.894039 -0.158808
0.803957 -0.432637 -0.217951
-0.328189 0.553966 -0.549881
-0.339412 -0.781978 -0.518510
-0.044195 0.881969 -0.621461
0.951589 -0.794241 -0.845140
-0.597622 -0.356202 0.358714
-1.181662 -0.404522 0.436425
0.025996 -0.847975 -0.952363
1.014477 -0.019738 -0.053513
0.290590 -0.475204 -1.595333
-0.363223 -0.468650 0.218562
-0.658139 0.035786 0.273992
0.899441 0.131274 -0.443387
0.560196 -0.254861 -0.002479
-0.387027 0.494723 -0.446668
0.065801 -0.214639 0.191197
-1.292056 -0.513049 0.484272
-0.939501 -0.117930 0.144788
0.116661 0.467225 -1.353226
-0.246115 0.419262 -1.087320
-0.017549 0.427063 -1.559270
-1.137063 -0.568335 0.205587
0.457221 -0.129097 -1.187851
0.196384 0.388761 -1.283216
-0.058078 -0.517044 0.058422
-1.243783 -0.590935 0.465996
-0.726549 -0.519886 0.324748
-0.363627 -0.207808 -1.108666
0.245928 -0.776528 -1.540704
-0.625776 0.198517 0.058482
0.101612 0.298080 -1.460619
-0.802405 0.010988 -0.120332
-1.327170 -0.569352 0.489704
0.424637 -0.919716 -0.876499
0.985629 0.010808 -0.385946
0.234613 -0.893198 -1.149309
-0.360864 -0.741018 -0.150880
0.900436 0.017981 -0.500013
-0.211350 -0.247069 -1.342937
0.998968 0.729113 0.000232
-0.906894 -0.230147 0.399940
-0.603654 -0.275625 -0.712543
-0.903428 -0.649273 0.228086
-1.124539 -0.454796 0.154462
0.560375 -0.014137 -0.986433
-0.293118 -0.786264 -0.335741
0.613553 0.265352 0.132248
-0.907687 -0.347672 0.438832
-1.197112 -0.513390 0.497647
0.082790 -0.823096 -1.164420
-0.576174 -0.159674 0.369863
1.086882 0.542207 0.039442
0.621970 0.738419 -0.516030
-1.294692 -0.534072 0.441087
0.454957 -0.937247 -1.381122
-1.228319 -0.585194 0.469593
-0.883545 -0.066989 0.006078
-0.931604 -0.115884 0.075707
-0.744128 -0.667445 -0.226602
-0.591121 -0.016367 0.326873
-0.775344 -0.434363 0.390112
-0.044940 0.083541 0.264984
-0.118772 -0.781852 -0.947031
-1.212464 -0.498016 0.300833
-1.160531 -0.576202 0.247376
-0.034141 -0.841159 -0.854498
0.844351 -0.481602 -0.833290
0.146105 0.574874 -1.257422
1.121998 -0.042056 -0.224542
0.272298 -0.214468 -1.487127
0.201113 -0.894036 -0.822371
0.994359 0.683185 0.048229
-0.724199 0.106396 0.080099
0.208548 -0.619026 -1.720358
0.907536 -0.888450 -0.864035
-0.996840 -0.461554 -0.055724
-0.432879 0.258595 -0.805834
-0.344380 0.244285 0.214500
0.864084 -0.197522 -0.660581
0.145304 -0.276228 -1.694255
0.777468 -0.699274 -1.037163
-0.937443 -0.389167 -0.158453
0.136492 0.505372 -1.306288
0.043065 0.339094 -1.520536
-0.494857 -0.291113 -0.885830
0.967217 0.010779 -0.411406
0.042791 -0.805587 -1.149388
0.420315 -0.779183 -1.571672
0.537689 1.179377 -0.406757
0.904928 -0.199167 -0.604976
0.416589 0.137554 -1.107492
-1.125358 -0.547241 0.461657
-0.950262 -0.406242 0.447905
1.025197 -0.135003 -0.405910
-0.943296 -0.630683 0.005140
0.390892 -0.616857 -1.529231
-1.097477 -0.497574 0.111096
-1.265818 -0.522881 0.390451
0.348922 0.912443 -0.082520
0.443776 0.419451 -0.925598
0.320970 0.789707 -0.905766
0.122915 0.507453 -1.323988
0.957589 0.567720 -0.139582
-1.263669 -0.519975 0.387508
-0.146470 0.251584 -1.412119
0.502949 -0.775876 -0.501181
0.785985 -0.974773 -1.094391
-0.049901 0.260153 0.232804
-1.079499 -0.617210 0.356493
0.816865 0.785747 -0.222447
0.918719 0.351150 -0.304177
0.929381 -0.057788 -0.498800
0.678641 -0.975209 -1.113866
0.315616 -0.910360 -1.227665
-1.199963 -0.414433 0.425518
-0.439138 0.238115 0.185583
-1.093330 -0.322625 0.402333
-0.942527 -0.203647 -0.062522
-1.094772 -0.534404 0.120128
0.502323 -0.444349 -1.286913
0.784386 0.397915 -0.465888
-1.126915 -0.613367 0.256517
0.108083 0.954763 -1.115482
-0.564966 -0.289231 0.364568
0.494768 -0.414526 -1.282086
-0.626088 0.232151 -0.159511
-1.320746 -0.577800 0.516418
-0.555851 0.289210 -0.036719
0.598661 -0.335698 -1.098146
0.659441 0.475749 -0.598720
-0.532079 0.019922 -0.774514
0.521484 0.300645 0.153013
0.028479 -0.645078 -1.423299
0.541102 0.687498 -0.653862
-0.107286 -0.827518 -0.770008
-0.181281 -0.798310 -0.374048
0.587572 0.191066 -0.843790
0.380775 -0.555849 -0.157350
-1.318176 -0.559118 0.521940
0.170625 0.761922 -1.127773
-0.166058 0.411354 -1.276716
-1.321900 -0.568261 0.522521
-0.906696 -0.121536 -0.044293
-0.050230 -0.199156 0.233927
-0.918135 -0.455196 -0.181081
1.072202 0.487751 0.041031
-0.744182 -0.701997 -0.080841
0.542943 0.081874 -0.961372
1.057099 -0.074614 -0.092133
0.440383 1.106562 -0.578517
-1.068370 -0.576477 0.414503
0.126283 1.073812 -0.823177
1.066470 0.582828 0.018630
0.424307 1.272425 -0.515820
-0.515915 0.128438 -0.736143
0.926214 -0.511524 -0.735471
0.600505 0.843537 -0.491879
-0.489174 -0.586516 -0.729546
-1.211233 -0.593756 0.449214
-0.870486 -0.300155 0.427387
0.209531 0.565958 -1.174328
0.349337 -0.561205 -1.558171
0.387813 0.907259 -0.753205
0.313404 0.978925 -0.168124
0.133400 -0.178885 0.181617
0.911075 -0.608164 -0.805869
-1.018774 -0.644080 0.179429
-1.104128 -0.306334 0.343390
0.445025 -0.054189 0.121886
0.260276 1.169979 -0.794964
-0.814262 0.007857 0.145351
-0.373167 0.013057 0.316928
-0.505483 0.095342 0.276446
0.967902 0.549527 -0.134644
-0.038531 -0.771562 -0.311542
-0.077494 0.703025 -1.162872
0.056311 0.461775 -1.439422
0.890449 -0.293813 -0.673440
0.108099 -0.816787 -1.226539
0.130720 1.045747 -1.037617
0.014817 -0.860431 -0.739156
1.020523 0.709448 0.019954
1.032119 0.018794 -0.317606
-0.309877 -0.420338 0.228913
-1.085378 -0.508999 0.095269
0.354218 0.554691 -0.980134
0.821916 -0.858530 -1.057267
-0.386811 0.028192 -1.046439
-0.786571 0.017240 -0.166912
0.056704 0.411499 -1.464618
0.385035 0.775655 0.028491
0.367254 0.565232 -0.956721
0.762035 -0.857236 -0.749849
0.970042 -0.455777 -0.646359
0.135701 0.401771 -1.360421
1.134364 -0.293117 -0.335985
-0.375378 0.507964 -0.456011
0.596863 -0.881245 -1.379928
1.030495 0.354352 -0.148059
-0.622901 -0.634761 0.158552
0.418758 -0.279911 -1.318218
0.313634 -0.913194 -1.200497
0.492773 -0.787116 -0.518054
0.681823 0.835980 -0.383364
-0.408336 -0.739853 -0.581719
0.634770 0.019125 -0.866587
-0.633148 -0.133183 -0.645912
0.229596 1.081512 -0.882657
-1.261419 -0.589162 0.475524
0.557133 -0.879499 -1.433942
-0.465776 0.275797 0.126826
0.443284 1.032030 -0.612664
0.352889 -0.732513 -1.640964
1.122749 0.126324 -0.137301
0.468326 -0.359074 -1.290241
-0.692108 0.152943 -0.155150
-0.933122 -0.579046 -0.084279
-0.144446 -0.675934 -0.090455
-0.512816 -0.504749 -0.766873
