ply
format ascii 1.0
element vertex 1674
property float x
property float y
property float z
end_header
-0.689837 0.324664 -0.200634
-0.836956 0.215262 -0.155273
0.592050 0.005286 0.910226
1.052202 0.042568 -0.607729
-0.572317 0.262660 0.050033
-0.236548 0.225582 -0.928366
0.596581 0.270458 0.026773
-0.218725 0.290033 -0.650869
1.000615 -0.111995 -0.479598
-0.286189 0.059140 -0.928366
0.573781 -0.135086 0.473383
-0.445040 0.516820 -0.863893
0.437817 0.167068 -0.928366
0.876726 0.355943 -0.928366
-0.774337 0.027137 0.318313
0.358342 0.428702 -0.701260
1.056907 -0.241518 -0.813988
0.521034 0.336689 -0.928366
-0.080928 -0.094884 -0.808721
-0.795396 -0.336162 -0.928366
0.550162 -0.059316 0.683802
0.362097 -0.113923 -0.928366
0.485985 -0.462930 -0.655686
0.645122 -0.009113 0.753118
1.002732 -0.348115 -0.862918
0.354636 0.101339 0.063941
0.098147 -0.176910 -0.824464
-0.342627 -0.045450 0.079024
-0.474133 -0.035774 0.513491
-1.055538 0.219445 -0.928366
0.609607 0.067501 0.696923
0.474440 -0.118589 0.368591
0.607238 0.451906 -0.578700
-0.060460 0.025153 -0.928366
-0.606434 0.129296 0.495176
0.308170 0.134437 -0.122546
0.474894 -0.115796 0.376209
0.618902 -0.061943 0.705004
-0.376082 0.149004 -0.928366
-0.508911 0.113242 0.457519
0.549130 0.013584 0.774190
0.425731 -0.046797 0.348292
0.673608 -0.060431 0.593465
0.974774 -0.200579 -0.508148
-0.592498 0.000282 0.925396
-0.214835 -0.386535 -0.928366
-0.156553 -0.338942 -0.928366
0.451754 0.138037 0.269225
0.886361 0.258893 -0.928366
-1.113257 -0.189976 -0.916751
0.726355 0.121431 0.328020
0.548666 -0.515788 -0.797365
0.829576 -0.231242 -0.928366
-0.530623 0.109758 0.506982
-0.428668 -0.088321 0.305483
-0.299644 -0.336341 -0.560051
0.742650 -0.050006 0.403506
0.413960 0.350243 -0.928366
-0.525649 -0.084570 -0.928366
-0.492006 0.170069 0.268459
0.593869 0.001281 0.923752
0.488438 -0.125454 0.383248
0.617915 -0.105611 0.566926
0.204245 0.327431 -0.766755
-0.551582 -0.090945 0.594782
-1.077693 0.056257 -0.696985
0.939161 0.261624 -0.517075
-0.583895 0.226840 0.171577
-0.730158 0.191629 0.143511
-0.359031 -0.432751 -0.712013
0.318829 -0.439202 -0.798085
0.735911 -0.425910 -0.568761
0.511799 0.073572 0.562269
-1.050387 -0.269163 -0.928366
-0.386303 0.236484 -0.119333
0.244119 0.072713 -0.928366
0.314533 -0.083741 -0.928366
0.539738 -0.035623 0.713823
-0.461781 -0.433046 -0.928366
-0.722279 -0.265327 -0.928366
-0.206944 0.153684 -0.928366
-0.176431 -0.164372 -0.565452
-0.663705 0.076584 0.581701
0.599814 0.161440 0.389801
-0.781136 -0.232350 -0.067473
-0.468033 -0.434484 -0.928366
0.509720 0.179596 0.267998
-0.768868 -0.080457 0.284747
-0.551598 0.040986 0.733357
-0.269019 0.282550 -0.505436
-0.927372 0.398985 -0.928366
0.671671 0.366471 -0.320795
0.898274 -0.411610 -0.779150
0.484214 -0.093015 0.450396
-0.850616 0.344567 -0.505027
-0.139606 -0.091708 -0.614677
-0.250305 -0.351818 -0.709557
0.348349 0.324564 -0.427135
-0.498560 -0.326262 -0.928366
0.282772 0.259612 -0.420926
0.852692 -0.149400 -0.928366
0.758049 0.338618 -0.326801
0.648918 -0.214675 0.189192
-0.659793 -0.176461 0.299841
-0.279541 0.118615 -0.189875
0.719102 -0.495048 -0.928366
0.167128 0.130223 -0.557187
0.653943 -0.208481 0.204667
-0.780748 -0.254779 -0.125900
0.815261 -0.420055 -0.928366
-0.424573 0.013260 0.364064
-0.681865 0.012658 0.630292
-0.933823 -0.295408 -0.574195
0.510788 0.111799 0.465112
0.320791 -0.242187 -0.286996
-1.062369 0.251138 -0.845065
0.398258 -0.032442 0.269149
-0.730718 0.128848 0.300551
-0.672093 0.162017 0.327894
-0.629731 -0.139426 0.448047
-0.711681 -0.014554 0.530934
-0.467707 0.146315 0.285521
-0.063463 -0.039618 -0.842832
0.772546 -0.401295 -0.536599
0.353379 -0.222751 -0.163020
0.979730 -0.110266 -0.411009
-0.735980 0.029299 0.442983
0.552953 -0.523569 -0.822048
0.576901 -0.428306 -0.500372
0.612339 0.075634 0.668424
-0.675554 0.006022 0.653597
-0.816292 0.059499 0.159196
-0.378595 -0.114666 0.116883
0.864938 0.354481 -0.560185
-1.028728 -0.024857 -0.525280
-0.477825 0.091324 0.437507
0.792720 -0.352080 -0.420342
-0.520064 0.013974 0.679700
0.548499 -0.369278 -0.928366
-0.754707 -0.044002 0.370848
0.542150 0.230863 0.140130
0.612004 -0.007171 0.861730
0.668923 0.093782 0.526879
0.459098 -0.178640 0.183500
-0.633327 -0.272156 0.011443
-0.408261 0.049193 0.290003
0.529273 -0.079888 0.587010
0.683938 -0.096430 0.487332
0.768251 -0.142708 -0.928366
0.381131 0.074794 0.178342
0.998238 -0.141071 -0.928366
-0.853569 0.235187 -0.240822
0.611421 0.146906 0.434986
0.554837 0.049387 0.719618
-0.591861 -0.006605 0.905803
-0.705656 -0.121847 0.375990
-0.089777 0.143080 -0.928366
0.829590 -0.271472 -0.928366
0.827207 -0.358246 -0.928366
0.729299 0.000102 0.475183
-0.584011 -0.369948 -0.305188
-0.827452 -0.239654 -0.188380
0.447145 -0.049676 0.413675
1.000660 0.203530 -0.589421
0.551245 -0.295328 -0.066013
1.079893 0.070796 -0.928366
0.331168 0.169923 -0.113053
-0.969504 0.039161 -0.332278
0.607853 -0.417991 -0.465777
-0.393947 0.012368 0.262432
-0.140575 0.224476 -0.928366
-0.306299 -0.256720 -0.355290
0.176309 -0.204228 -0.928366
0.783302 0.374993 -0.472841
-0.338744 -0.104963 0.010407
0.439817 0.497750 -0.807929
0.627015 0.036341 0.763227
0.853228 -0.001215 -0.928366
0.517675 -0.321758 -0.173420
0.401387 -0.085543 0.227849
0.297737 -0.203388 -0.267692
0.572474 0.014984 0.842729
-0.816100 -0.199924 -0.069355
-0.958707 0.340314 -0.735980
-0.353093 -0.447011 -0.763244
0.539305 -0.069835 -0.928366
-0.586371 -0.031610 0.820466
-0.619407 0.407484 -0.928366
-0.701500 0.526157 -0.928366
-0.646565 0.385776 -0.369736
-0.191000 -0.133972 -0.928366
0.691521 -0.110526 -0.928366
-0.535776 0.047892 0.678753
0.779847 -0.398538 -0.538361
0.632489 0.022448 0.777948
0.368729 0.165985 -0.002598
0.766522 0.013981 0.349227
0.829841 -0.393106 -0.600844
0.732096 -0.124240 0.307545
-0.876767 0.066072 -0.041709
0.255729 0.432697 -0.901055
0.793462 -0.163266 0.067466
0.934821 0.172616 -0.347055
0.365731 -0.156328 0.007943
-0.441505 -0.068072 0.373701
0.572599 0.514887 -0.928366
0.749170 0.260169 -0.082517
-0.517110 -0.370156 -0.331384
-0.621221 -0.091917 0.608194
-0.133209 -0.009585 -0.605749
-0.474570 -0.269690 -0.053923
-0.955566 0.057335 -0.294074
-0.607567 0.166558 0.371151
0.902700 -0.440959 -0.867141
-0.827894 0.148126 0.003671
0.299673 -0.358478 -0.616334
-0.653576 0.221672 0.162667
0.547526 0.326191 -0.169613
0.063413 0.119922 -0.882736
0.229792 -0.240090 -0.928366
0.535382 -0.006674 0.733884
-0.594159 0.002790 0.918676
0.851779 0.306344 -0.928366
-0.490795 0.271410 -0.038759
-1.017886 -0.160763 -0.928366
0.775140 0.232920 -0.928366
0.550160 -0.128270 0.477217
0.887917 -0.306068 -0.487618
-0.574813 -0.015084 0.848720
-0.567347 0.142520 0.445461
-1.072586 -0.255848 -0.882500
0.524920 -0.376933 -0.348610
0.913104 0.060244 -0.156253
0.200955 0.382883 -0.928366
0.867528 0.245289 -0.928366
1.039751 0.184595 -0.681862
0.656495 -0.004931 0.717221
-0.895068 0.250140 -0.378059
-0.848315 0.128454 -0.928366
-0.474338 0.097332 0.415901
0.845333 0.039585 -0.928366
-0.969467 0.132672 -0.928366
-0.820849 -0.508277 -0.927866
-0.435841 -0.528000 -0.908270
0.739089 -0.027261 0.434122
1.023212 -0.331584 -0.881285
-0.339039 0.325619 -0.928366
0.691357 0.200836 -0.928366
-0.156803 -0.133357 -0.593154
0.409182 0.112182 0.209568
-0.871154 0.411318 -0.726127
0.429957 0.189779 0.093626
0.724068 0.287840 -0.125414
-0.729962 0.007690 0.472249
0.834608 -0.123971 0.024194
0.589067 -0.536760 -0.928366
-0.144465 0.079390 -0.591118
0.824263 0.156069 -0.928366
0.437338 0.116482 -0.928366
0.444210 0.193817 0.113190
0.562615 -0.029715 0.785880
0.940661 -0.375864 -0.928366
0.939521 0.303418 -0.928366
-0.868817 -0.077551 -0.025572
-0.729550 0.010347 0.473038
0.894201 0.019891 -0.076681
0.545033 -0.028034 0.742182
-0.548247 -0.167348 0.350640
0.960128 0.090178 -0.928366
0.315870 0.479451 -0.928366
0.380611 0.220134 -0.092060
1.096752 0.191015 -0.928366
0.404744 0.399677 -0.544768
0.975074 -0.151221 -0.440273
-0.855053 0.011831 -0.928366
-0.904853 -0.308754 -0.928366
-0.900547 -0.016552 -0.097131
-0.612476 0.165423 0.373282
-0.557281 0.054890 0.709444
0.569505 -0.072341 0.674475
-0.626366 0.094358 0.595133
0.163431 0.216103 -0.928366
0.601920 0.003401 0.897612
-0.784252 0.072811 0.247292
-0.649160 0.377028 -0.342090
0.588440 -0.547138 -0.895499
-0.437171 -0.490567 -0.787722
0.390462 -0.008839 0.251453
-0.727401 0.072310 0.420647
-0.066312 0.008887 -0.928366
0.714048 -0.333663 -0.254383
0.193476 0.178948 -0.928366
-0.454631 0.002826 0.465894
1.062353 0.256101 -0.852888
-0.923212 0.256185 -0.463850
0.529250 0.298959 -0.928366
0.076085 0.033542 -0.928366
0.122189 -0.182436 -0.928366
1.108586 -0.026372 -0.791356
-0.427338 0.043853 0.356030
-0.785693 0.327027 -0.336303
-0.630882 -0.009043 0.799657
-0.805008 -0.305550 -0.310641
0.693971 0.386454 -0.402766
-0.612579 0.035016 0.795193
0.839220 -0.321574 -0.928366
0.307316 -0.118545 -0.103702
0.737502 -0.167553 0.191590
-0.813986 0.370816 -0.509949
0.597317 -0.040276 0.793459
0.552721 -0.041588 0.734580
0.719385 -0.057901 0.466016
-0.808778 -0.220406 -0.098988
0.669236 -0.278468 -0.033717
0.765960 -0.086679 0.284509
0.370003 0.270751 -0.241569
0.660132 0.440065 -0.555316
0.571558 -0.046851 0.756139
0.321800 -0.424011 -0.749998
0.298572 0.111424 -0.928366
-0.122822 -0.246003 -0.841469
-0.843097 -0.110253 0.018344
0.590470 0.255666 0.076090
1.085562 -0.243976 -0.928366
-0.919708 -0.209186 -0.928366
0.684882 0.351506 -0.928366
-0.577169 0.086656 0.634525
0.639848 -0.318609 -0.928366
0.648828 0.017436 0.734499
-0.418703 -0.476179 -0.928366
0.493449 0.024803 0.585273
0.663927 -0.189393 0.254639
0.838676 -0.156957 -0.042450
0.558197 0.307472 -0.928366
-0.664515 0.098225 0.524037
0.480103 0.010925 0.549143
0.554072 0.033242 0.756859
-1.006558 -0.008193 -0.449287
0.445038 -0.278257 -0.122673
-0.654998 -0.076288 0.601408
0.738480 -0.181484 -0.928366
-0.852769 0.295826 -0.383185
0.525542 0.207895 -0.928366
-1.055153 -0.025129 -0.928366
0.886937 -0.145358 -0.163656
0.245051 -0.351774 -0.721727
0.783461 -0.061661 -0.928366
-0.661712 0.205644 0.205997
-0.536402 0.099698 0.545654
-0.807431 0.483504 -0.834236
1.006852 -0.137401 -0.524095
-0.665423 0.126147 -0.928366
-0.598413 0.239002 -0.928366
0.739545 0.371617 -0.402774
0.894330 -0.432342 -0.827617
0.619798 0.038532 0.772569
0.332423 0.082215 -0.928366
-0.581800 -0.276207 0.006870
-0.284995 0.395137 -0.742336
0.563812 0.032520 0.781938
-0.379965 0.445172 -0.717195
-0.548372 -0.510470 -0.779790
0.438254 0.315659 -0.243969
-0.557260 -0.004389 0.807201
-0.492850 -0.057216 0.542900
-0.543410 0.113119 0.516200
-0.620469 0.131467 0.480911
0.751600 0.452221 -0.668678
-0.570254 0.459077 -0.603825
0.401114 -0.025870 -0.928366
-0.695197 -0.258950 0.000829
-0.550722 0.010890 0.781730
0.227136 -0.251966 -0.928366
-0.795255 0.152343 0.085246
-0.591207 0.042518 0.786461
-0.443849 0.073203 0.373514
-1.015587 -0.354269 -0.928366
-0.060590 -0.102608 -0.880117
0.186604 0.185264 -0.928366
-0.506674 -0.021244 0.630914
-0.936768 0.051804 -0.229333
-0.409956 0.229825 -0.051718
-0.620993 0.218474 0.194312
1.034163 0.179299 -0.657928
-0.637084 0.048211 0.711379
0.773890 -0.004992 0.326316
-0.675753 0.411363 -0.928366
-0.716678 0.041130 0.494995
0.514516 -0.465130 -0.928366
0.532537 0.430390 -0.520515
0.915058 -0.022735 -0.146691
-0.327546 -0.445686 -0.801389
-1.000582 -0.123927 -0.928366
0.778823 -0.021833 -0.928366
-0.290100 -0.171260 -0.232510
0.686662 0.145061 0.353416
-0.584994 -0.357559 -0.928366
0.388633 -0.016477 0.243791
-1.051826 -0.173630 -0.705829
-0.620082 -0.039168 0.770286
0.503852 0.086947 0.512453
0.578500 -0.073328 0.678982
0.690204 0.132292 0.381829
-0.696366 -0.084003 0.485269
-0.441785 0.285976 -0.150481
-0.648527 -0.514630 -0.796900
-0.386083 0.471547 -0.928366
-0.402306 -0.223810 -0.928366
-1.013059 0.040838 -0.477291
0.179342 -0.030361 -0.455346
-0.492524 -0.247562 -0.928366
0.933397 -0.334334 -0.661237
-0.826198 0.249812 -0.209992
-1.009724 -0.271202 -0.728012
-0.577088 -0.506710 -0.761537
-0.595479 0.349147 -0.235478
1.023265 -0.104313 -0.928366
0.226214 -0.058720 -0.310953
-0.638834 0.414617 -0.461983
0.590420 -0.391573 -0.376915
0.735895 -0.140522 -0.928366
0.768121 0.506346 -0.857174
0.793177 0.267313 -0.184138
0.283083 0.446886 -0.885067
0.466894 0.092280 -0.928366
0.975279 -0.025747 -0.347641
0.295682 -0.196465 -0.260476
-0.691290 0.027627 0.589137
0.184279 0.203497 -0.594588
-0.709527 0.194998 0.171744
0.375334 -0.050931 0.182100
-0.629035 0.280683 -0.928366
0.547984 -0.061287 0.674209
0.723795 -0.251271 -0.928366
-0.592438 0.324317 -0.152695
0.576145 0.003719 0.869713
-0.699375 -0.423113 -0.525622
0.564196 -0.313855 -0.122320
0.289034 0.184642 -0.928366
-0.471609 0.448988 -0.928366
0.622498 0.084178 0.631418
-1.011155 -0.323994 -0.928366
-0.500488 0.285117 -0.928366
-0.380574 -0.293170 -0.279108
0.335651 0.171950 -0.104280
-1.127957 -0.026905 -0.855936
0.517601 0.033881 0.651783
0.682500 0.456056 -0.620598
0.552181 -0.279167 -0.012253
0.210504 -0.032240 -0.352284
-0.735637 0.053105 0.422099
-0.743980 -0.083493 0.354274
-0.904065 -0.174958 -0.260275
0.581280 0.263672 0.048541
-0.545360 -0.006798 0.766822
-0.425731 -0.519370 -0.890791
-0.567786 0.022293 0.815319
0.538661 -0.240351 0.106722
0.725941 -0.041585 0.465148
0.561832 -0.198719 0.257691
0.234651 -0.362376 -0.771231
-0.535564 -0.183445 0.287269
-0.524031 -0.211002 0.188051
0.190716 0.120142 -0.472201
0.355904 -0.366349 -0.928366
-0.621736 0.099050 0.584903
-0.820676 0.222152 -0.131148
1.018831 -0.163411 -0.590926
-0.449842 -0.068726 0.398001
-0.666813 0.262947 0.018305
-0.242009 -0.314037 -0.928366
-0.559669 -0.013439 0.807506
0.500554 -0.167958 0.288748
0.639840 0.179576 0.310039
0.256488 -0.263916 -0.928366
0.550614 0.443872 -0.558048
0.203224 -0.111985 -0.424547
0.317594 0.368259 -0.605159
0.178810 -0.236105 -0.661825
0.567977 -0.036471 0.780282
0.824632 0.338322 -0.928366
-0.679858 0.019754 0.632561
0.755492 0.081867 0.322888
-0.487956 0.135902 0.355112
-1.069886 0.285613 -0.923563
-0.254694 -0.007261 -0.200724
0.364951 0.350967 -0.467427
-0.977082 0.015767 -0.928366
-0.711902 0.044142 0.506667
0.852093 0.280911 -0.344696
0.805469 -0.284770 -0.255279
-1.016105 -0.130966 -0.546908
-0.102015 -0.141434 -0.775903
-0.698821 -0.168594 0.265464
-0.051487 -0.121829 -0.922914
-0.420192 -0.319893 -0.928366
-0.142676 -0.157469 -0.928366
-0.502867 -0.244418 -0.928366
0.938609 0.407865 -0.852901
1.007204 -0.308047 -0.791366
-0.836202 -0.358370 -0.514660
-0.530717 0.077703 0.595703
-0.780531 -0.104406 0.213915
0.215937 0.156146 -0.433077
-0.943147 -0.156443 -0.348944
0.571407 0.260866 -0.928366
-0.592995 -0.065273 -0.928366
1.074156 0.067101 -0.689875
0.705984 -0.128769 0.358089
1.125297 0.032459 -0.928366
-0.502560 -0.013545 0.622403
0.539404 -0.466579 -0.928366
-0.583282 0.370846 -0.308241
-0.555803 -0.270987 -0.928366
0.076788 0.106567 -0.928366
0.502029 -0.512091 -0.805530
0.471008 0.339173 -0.928366
0.760558 -0.322561 -0.282723
-0.310406 0.110399 -0.084010
-0.497897 -0.506329 -0.789123
-0.891598 0.318150 -0.525270
0.718412 0.431736 -0.569922
0.847411 -0.475233 -0.867916
-0.553547 -0.318931 -0.142983
0.570579 0.264790 0.042476
0.178498 0.103354 -0.496722
0.590699 -0.233115 0.151267
0.780138 0.231368 -0.062835
-0.872430 0.369325 -0.928366
-0.907211 0.097098 -0.928366
-0.456530 -0.192973 0.139863
-0.590062 -0.006555 0.903931
-0.776355 0.486828 -0.805271
0.602476 0.125893 0.507620
-0.198495 -0.280639 -0.686369
0.307241 -0.464156 -0.889127
-0.296744 -0.111605 -0.928366
-0.977208 -0.273346 -0.642444
0.656901 -0.107402 0.512369
0.526590 -0.522638 -0.928366
0.359971 -0.476684 -0.840783
-0.158270 -0.225140 -0.704549
-0.582952 0.012798 0.873413
-0.323340 0.152513 -0.105302
-0.716633 -0.005485 0.516994
0.594165 -0.000096 0.925608
0.370873 0.005056 -0.928366
0.952275 0.306699 -0.645362
-0.272006 -0.088570 -0.182702
0.348150 0.159422 -0.046516
1.058537 -0.164350 -0.716208
-0.361575 0.415935 -0.658801
0.828689 0.489045 -0.880723
-0.390833 0.496439 -0.928366
0.556202 -0.017999 0.790788
-0.639094 -0.431600 -0.518360
0.211673 0.152640 -0.441838
1.018296 -0.219291 -0.665625
0.496304 0.069208 0.531064
-0.711563 0.076959 0.458159
-0.843377 0.078172 -0.928366
0.887008 -0.344311 -0.928366
0.704610 0.447690 -0.928366
-0.775519 -0.354213 -0.928366
0.627213 -0.034819 0.766450
-0.641153 0.048338 0.701740
0.837953 -0.056139 0.091802
0.963873 0.210594 -0.492283
-0.758400 0.491549 -0.800038
0.662564 0.299025 -0.094742
-0.295292 -0.077079 -0.097824
0.165992 -0.163797 -0.597189
-0.573561 0.257703 0.066828
0.418918 -0.081400 0.286753
0.177875 -0.166879 -0.564070
-0.518865 0.261129 0.023223
0.439406 0.117989 0.281852
-0.293964 -0.354393 -0.928366
-0.468427 0.144557 0.291525
-1.005302 0.001423 -0.444839
0.722875 0.204643 0.121059
0.388691 -0.232745 -0.104714
0.540439 -0.170267 0.334041
0.898579 0.399389 -0.747210
0.541547 0.551777 -0.918976
-0.573029 0.386924 -0.363158
-0.134027 -0.301091 -0.928366
-0.126024 0.066004 -0.644827
-0.827146 -0.312644 -0.372957
0.638456 0.033034 -0.928366
0.328997 -0.063756 -0.928366
0.587370 0.027642 0.834098
-0.322274 0.335041 -0.508186
-0.691385 -0.131348 0.382021
-0.641136 -0.540858 -0.928366
-0.990063 -0.239684 -0.616644
-0.793453 -0.409209 -0.928366
-0.385482 0.502543 -0.928366
-0.324686 0.135752 -0.074992
0.769953 0.246170 -0.928366
-0.792421 -0.212242 -0.041619
-0.569095 -0.027671 0.805725
-0.828680 -0.146599 0.004157
-0.738205 0.162508 -0.928366
-0.717368 -0.118844 0.355788
0.150831 0.083175 -0.572508
-0.727754 -0.257220 -0.039038
-0.562088 0.061355 0.698841
0.236192 0.132860 -0.928366
-1.135186 -0.074941 -0.894967
-0.161420 0.234244 -0.928366
0.276330 -0.397419 -0.928366
-1.069431 0.074610 -0.677960
-1.115623 0.102744 -0.845934
0.609756 0.189002 0.295989
-0.591805 -0.002087 0.919723
-0.926165 -0.286248 -0.534918
0.734943 -0.031667 0.444708
-0.441713 0.111524 0.300943
-0.504069 0.126221 -0.928366
0.705578 -0.208918 0.137846
0.473053 -0.158706 0.264560
0.341782 -0.341106 -0.484418
-0.268208 -0.442344 -0.901573
-0.301607 -0.345537 -0.928366
-0.363360 0.126813 0.052937
0.620094 0.081869 0.641272
-0.559684 -0.042374 -0.928366
0.283028 -0.304940 -0.521861
0.867495 0.067052 -0.012407
-0.787823 0.018490 -0.928366
-0.850745 0.166548 -0.093581
0.730797 0.094512 0.372329
-0.081983 0.203030 -0.928366
0.285907 0.123581 -0.176118
-0.614944 -0.007756 0.851865
0.258184 -0.365987 -0.928366
0.638517 -0.002716 0.777515
0.296319 -0.305072 -0.928366
0.182625 -0.146987 -0.525728
-1.044177 -0.308050 -0.928366
0.599047 0.005927 0.900948
-0.593703 -0.156744 0.405886
-0.480662 0.049218 0.518493
-0.672568 -0.290009 -0.073752
0.501744 -0.083937 0.514227
0.673148 -0.137076 -0.928366
-0.845039 0.081573 0.046419
-0.160927 0.248393 -0.928366
-0.661681 -0.056663 0.632454
-0.899610 0.318455 -0.928366
-0.243249 -0.395339 -0.928366
-0.286192 0.003597 -0.095542
-0.540452 -0.131174 0.456914
-0.805398 -0.398333 -0.575837
0.680986 0.017499 0.630458
-0.786047 0.070580 0.244292
-0.775994 0.458534 -0.928366
0.433114 -0.104331 -0.928366
-0.771760 0.155757 0.138903
0.437686 0.475477 -0.739325
0.841900 0.077888 0.060118
-0.470282 0.269063 -0.057868
0.491528 -0.320638 -0.193017
-0.632423 -0.423029 -0.487736
0.605414 0.336312 -0.193395
0.553938 -0.168858 0.350383
0.572333 0.161150 0.386654
0.574776 0.136175 0.470249
0.745348 0.022023 0.416395
-0.995514 0.276638 -0.698731
0.791072 -0.254720 -0.146491
-0.561276 -0.055231 0.715479
-0.270687 -0.058885 -0.164922
0.750014 0.079114 -0.928366
0.886967 0.219567 -0.928366
-0.591984 0.001676 0.921174
0.364540 -0.364478 -0.506111
0.717744 -0.063898 0.462195
0.839004 0.477665 -0.862080
-0.592240 -0.000362 0.924494
-0.621265 0.010419 0.829027
-0.563160 0.018206 0.810869
0.883305 -0.347024 -0.579035
0.922369 -0.137630 -0.260471
0.632335 -0.042283 0.736643
-0.178598 -0.356998 -0.928366
0.605288 0.017511 -0.928366
0.754227 0.147579 0.200636
-1.000529 0.061728 -0.928366
-0.468815 -0.432672 -0.572419
-0.516973 -0.088548 -0.928366
0.671451 -0.437960 -0.928366
0.623741 -0.233388 -0.928366
-0.501090 -0.042166 0.590257
-0.686976 -0.362539 -0.928366
0.755406 0.064796 0.346580
0.262971 0.066450 -0.194931
0.575469 0.384677 -0.928366
0.866884 -0.157119 -0.928366
0.398436 -0.354797 -0.928366
0.861680 0.424682 -0.746148
0.374927 0.057503 0.175500
-0.620394 0.051626 0.734086
0.701862 0.337690 -0.253961
-0.516302 -0.251180 0.052600
0.649805 -0.133807 0.444262
-0.600569 0.029098 0.828426
0.387154 -0.046290 0.223960
0.697764 -0.122485 0.391854
0.980013 0.223265 -0.559959
-0.696231 -0.018143 0.580118
0.218002 -0.066180 -0.928366
0.945043 0.413370 -0.928366
0.968569 -0.026217 -0.325434
-0.819677 0.223182 -0.928366
-0.095942 -0.009452 -0.729938
-0.725067 0.290437 -0.134675
-0.593625 -0.011031 0.891582
-0.658983 -0.156937 0.361329
0.600135 -0.215650 0.209176
0.762973 -0.090593 0.287348
0.394336 0.083163 0.209415
0.557942 -0.281834 -0.018462
-0.689238 0.035356 0.587683
0.096597 -0.205813 -0.863951
-0.736428 -0.416707 -0.540261
-0.419584 -0.255925 -0.102762
-0.512963 0.005031 0.659907
0.986368 0.003194 -0.928366
-0.782422 0.092347 0.226952
-0.913021 0.150693 -0.249682
1.105967 -0.041623 -0.786002
-0.805530 -0.036328 0.210788
0.853848 0.366927 -0.571625
0.851247 -0.194720 -0.148821
-0.522128 0.064560 0.607954
0.220411 0.190598 -0.928366
-0.935054 0.103494 -0.928366
0.915416 -0.337235 -0.626046
-0.965434 -0.259586 -0.928366
-0.409454 -0.021426 0.311253
-1.098440 0.167219 -0.845158
-0.667318 -0.094398 0.528599
0.113855 0.233710 -0.849677
-0.118260 0.131926 -0.928366
0.716708 0.304062 -0.165416
0.536954 -0.133225 0.446139
-1.037278 -0.267962 -0.928366
-0.419543 0.148526 0.166304
-0.696198 -0.008913 0.584232
-0.585262 -0.467340 -0.629668
0.560577 -0.038665 0.759427
0.466191 0.157294 0.254167
0.521897 -0.317114 -0.928366
-0.565086 -0.060659 0.705306
-1.014090 0.352803 -0.901928
-0.081255 0.204407 -0.909559
0.833885 -0.002948 0.126503
-0.450207 0.014871 0.448675
-0.096674 -0.142149 -0.928366
0.592809 0.000097 0.926555
-0.656543 0.029706 0.695589
-0.709336 0.497040 -0.772952
-0.886858 0.039011 -0.058621
0.442561 -0.486399 -0.928366
0.924170 0.364971 -0.713619
-0.781454 0.296244 -0.928366
0.699486 0.028324 0.562176
-0.796852 0.009393 0.249283
0.060459 -0.094250 -0.875485
0.100625 -0.100204 -0.928366
-0.599203 0.018444 0.863859
-0.535279 0.067271 0.632150
0.370090 -0.113029 -0.928366
0.535903 -0.042958 0.689275
-0.667332 0.548574 -0.916771
-0.582613 -0.280806 -0.008338
0.533262 -0.068115 0.625610
-0.583256 -0.049396 0.760313
-0.459383 -0.474147 -0.713994
0.786113 0.073590 0.240572
-0.849166 -0.450997 -0.799972
-1.064390 0.153993 -0.928366
0.428970 0.094017 0.297159
-0.310669 -0.377076 -0.928366
-0.402659 -0.464108 -0.928366
0.634433 0.130193 0.473290
-1.053366 0.157179 -0.692080
-0.847176 0.108687 0.007958
-0.553461 0.059800 0.688768
-0.600073 -0.000358 0.905904
0.431484 -0.506309 -0.843475
-1.082025 -0.201575 -0.833711
-0.757506 -0.046481 0.359646
0.456978 0.132710 -0.928366
0.169960 -0.235187 -0.928366
0.449530 -0.135724 -0.928366
0.409614 -0.140976 0.156420
-0.336039 0.482479 -0.928366
0.784990 -0.209685 -0.018536
0.430276 -0.056570 0.353028
0.571307 0.013646 0.841967
-0.579663 0.040703 -0.928366
0.255647 0.339949 -0.928366
0.895346 0.100333 -0.132411
-0.786630 -0.417987 -0.606679
-0.648180 0.013319 0.740264
0.745727 -0.132854 -0.928366
-0.882153 -0.163807 -0.178399
-0.626659 -0.103058 0.567336
0.857034 -0.011208 0.048603
0.716326 0.131475 0.328271
0.477200 -0.101063 0.415172
0.535419 0.198786 0.238189
-0.584643 -0.235805 0.141815
0.322060 -0.142292 -0.092755
0.255609 0.353795 -0.702023
0.101099 -0.165707 -0.802926
0.125556 0.195071 -0.928366
0.482241 0.263869 -0.025984
0.659632 0.310127 -0.928366
0.204173 0.148320 -0.459890
0.520333 -0.123557 0.449979
0.822165 0.370707 -0.928366
0.587863 -0.002366 0.908467
0.540209 -0.020652 0.738342
1.033430 0.244105 -0.928366
0.574258 0.195995 0.271961
-0.918896 -0.440287 -0.928366
-0.547571 0.006739 0.774144
0.655320 0.132761 -0.928366
-0.660889 -0.402788 -0.928366
-0.470801 -0.054855 0.480832
-0.691290 -0.104502 0.450941
-0.538047 -0.270741 -0.928366
-0.604300 -0.005821 0.887009
0.664684 0.306011 -0.119024
-0.337677 0.387571 -0.619310
0.727856 0.337423 -0.282454
-0.334547 -0.409118 -0.685301
0.862904 -0.358704 -0.928366
0.532846 -0.027833 -0.928366
0.827166 0.007186 0.148590
-0.257626 0.249772 -0.466435
0.702861 0.040261 0.539421
0.652677 0.065386 -0.928366
-0.291726 -0.112811 -0.145048
-0.843596 -0.162175 -0.065656
0.835446 0.162363 -0.928366
0.597299 -0.198754 0.265722
0.429255 0.290477 -0.183699
-0.400688 0.373388 -0.472169
-0.730191 -0.071542 0.413633
-0.303258 -0.290275 -0.439557
-1.102260 -0.158708 -0.848597
-0.405126 -0.395461 -0.531525
-0.379389 0.104670 0.134414
-0.900226 -0.062169 -0.115354
-0.145972 -0.047026 -0.928366
0.502547 -0.123270 0.418031
-0.604350 -0.002507 0.890739
0.331846 -0.034977 -0.928366
0.334481 0.484365 -0.928366
0.725895 0.172355 0.203597
0.747353 -0.390313 -0.928366
0.867261 0.183252 -0.170178
0.849361 -0.284434 -0.347251
-0.609883 0.055013 0.736879
0.526575 -0.191625 0.251954
-0.528125 0.161422 0.348034
-0.276928 -0.286762 -0.928366
0.839272 -0.207160 -0.143477
-0.781277 -0.138639 0.149906
0.237331 0.299332 -0.928366
0.699505 -0.044480 0.544691
0.914622 0.066609 -0.165336
-0.953255 0.144501 -0.364422
-0.647023 0.340153 -0.219509
0.497817 -0.238995 -0.928366
-0.479179 0.063123 0.493521
0.799614 -0.258048 -0.172827
-0.255137 -0.068168 -0.221663
-0.553796 -0.299022 -0.077054
0.795438 0.444172 -0.698254
-0.842284 -0.020999 0.095619
0.287334 0.403585 -0.759903
0.663410 0.122766 0.457189
1.022035 0.328067 -0.871030
0.628724 -0.168800 0.353473
0.720987 -0.034874 0.487294
-0.398482 -0.163260 -0.928366
-0.763196 0.058459 -0.928366
0.453566 -0.517479 -0.928366
-0.816188 -0.245026 -0.175655
-0.474364 0.211393 0.119778
0.139990 0.180709 -0.928366
0.724582 0.123042 0.328710
0.152966 0.120681 -0.593682
0.194569 0.279914 -0.928366
-0.600112 -0.399020 -0.928366
-0.431181 0.216169 0.027589
-0.781771 0.436561 -0.656602
-1.123109 0.088939 -0.862232
0.657368 -0.030184 0.692422
0.649800 -0.103319 0.535906
-1.011801 0.190779 -0.604616
0.554044 0.175788 0.327940
-0.987223 -0.193680 -0.534707
0.593327 0.000002 0.928309
0.678991 -0.141211 -0.928366
0.574855 0.010430 0.857607
-0.811031 0.141477 -0.928366
0.487555 0.060545 0.522070
-0.776836 0.004035 0.316577
-0.467118 -0.074221 0.440268
-1.038719 -0.142128 -0.928366
0.786148 0.209122 -0.019765
-1.025796 0.013390 -0.513832
-0.620088 -0.006133 0.836903
0.606581 -0.000236 0.884233
-0.573291 -0.107909 0.562512
-0.649394 0.044599 0.689602
0.448106 0.145328 0.243494
-0.055008 0.136352 -0.922753
-1.130036 0.008161 -0.860816
0.227008 -0.314391 -0.680788
0.536025 0.394205 -0.399469
0.384455 -0.286046 -0.928366
-1.060516 -0.065234 -0.643984
0.684459 0.357031 -0.299880
-0.628571 0.028497 0.777329
-0.794388 -0.129336 -0.928366
-0.611265 -0.127567 0.498967
0.412550 0.252335 -0.106361
-0.697473 0.240532 0.054687
-0.522449 0.527767 -0.928366
-0.515728 -0.034265 0.645556
0.697138 0.269883 -0.035479
-0.218962 0.117909 -0.380000
-0.677593 0.169108 0.298589
0.508847 0.205031 0.189166
-0.738456 0.314138 -0.225083
0.691710 0.316930 -0.928366
-0.873932 0.041893 -0.017295
-0.686244 0.444474 -0.585230
0.770614 -0.262859 -0.128464
0.290564 -0.380892 -0.693548
0.667149 -0.066598 0.596996
0.836088 -0.034359 0.111151
0.434277 0.267337 -0.928366
-0.493024 0.036969 0.571983
-0.552195 -0.114861 0.521667
0.471142 -0.430057 -0.561909
0.746452 -0.039014 0.401698
0.322656 0.097034 -0.030146
0.440138 0.104061 0.311017
-0.670885 -0.111171 0.476558
0.652579 -0.360796 -0.290389
0.172476 -0.081672 -0.928366
0.546897 0.056188 0.685366
-0.775009 0.251686 -0.106300
-0.454703 -0.282448 -0.120432
-0.929670 -0.200700 -0.928366
-0.573081 -0.039487 0.780425
0.441183 0.095052 0.330333
-0.567336 0.046474 0.750844
-1.122558 -0.060179 -0.847052
0.352050 -0.382173 -0.578209
0.487980 0.324186 -0.207896
0.754223 0.490521 -0.928366
-0.305706 -0.298023 -0.928366
0.684855 -0.181912 -0.928366
0.424127 -0.198749 0.058273
0.703949 0.047426 0.527217
1.056515 -0.103201 -0.653398
0.343188 -0.135041 -0.019226
0.316095 0.321209 -0.928366
-0.697109 0.522792 -0.928366
-0.751041 0.403000 -0.514152
0.957864 -0.331545 -0.714116
-1.096371 -0.165124 -0.836422
-0.865287 -0.215149 -0.227500
0.953120 -0.089347 -0.307316
-0.633518 -0.016727 0.783306
0.567800 0.018016 0.824173
0.203266 -0.027756 -0.375179
-0.999699 -0.190981 -0.568291
0.746027 0.120833 0.279327
-0.596416 -0.133741 -0.928366
-0.652121 -0.528066 -0.928366
0.089918 0.175649 -0.928366
0.670513 0.156308 0.347301
-0.646964 0.206703 0.216550
-0.623424 0.118528 0.520747
-0.729122 -0.223099 0.057804
1.025296 -0.007271 -0.928366
-0.783983 -0.173098 0.070033
0.108800 -0.075714 -0.706379
-0.663000 -0.315927 -0.150017
0.750654 -0.207530 -0.928366
0.897743 -0.444595 -0.867689
-0.461276 -0.194418 -0.928366
0.531529 -0.074763 0.605006
0.881260 -0.187975 -0.217790
-0.914793 -0.242737 -0.928366
-0.490203 -0.462914 -0.928366
0.607664 0.330436 -0.174123
0.984238 -0.176965 -0.501923
-0.571534 -0.023753 0.820878
0.317598 -0.258239 -0.330923
0.973015 -0.360753 -0.817401
0.589031 -0.008144 0.897647
0.508011 -0.009332 0.642227
0.337934 0.136038 -0.928366
-0.481949 -0.171190 0.247558
0.846856 -0.467303 -0.843767
0.693848 0.338176 -0.247617
0.891729 -0.324361 -0.928366
1.013163 0.276353 -0.747008
0.203565 -0.281248 -0.928366
-0.320202 0.325836 -0.488891
0.317590 0.106486 -0.056968
0.681760 0.406710 -0.458999
0.620868 -0.013651 0.825952
0.803512 0.025388 0.222710
-1.088724 0.177878 -0.928366
-0.885131 -0.194784 -0.241061
-0.754651 -0.435593 -0.619972
-0.830465 -0.441959 -0.743474
0.425179 -0.105604 0.266453
-0.490488 0.127274 0.382902
0.313339 0.139209 -0.928366
0.632066 0.033102 0.758557
-0.552103 -0.040069 0.736697
0.998102 -0.001594 -0.420839
0.734783 0.138450 0.268623
-0.611229 0.049763 0.752100
-0.583804 0.034655 0.808551
0.897840 -0.420224 -0.801459
-0.199659 -0.098300 -0.424204
-0.405523 0.171875 0.079723
0.881961 0.040466 -0.928366
-0.381421 0.436805 -0.928366
-0.840095 0.054634 0.085940
1.071784 -0.111967 -0.709525
1.065586 -0.108882 -0.687075
0.411759 -0.151427 0.140239
0.281161 -0.245375 -0.928366
-0.597107 -0.106483 0.573200
0.132501 0.217985 -0.928366
0.575685 -0.210754 0.223391
0.450872 0.347253 -0.322778
0.561849 -0.153577 0.405790
0.537608 0.047264 0.684773
0.807259 0.289187 -0.270656
-0.617036 0.521317 -0.928366
-0.495591 -0.040028 -0.928366
-0.593125 0.343573 -0.216877
-0.748966 0.395425 -0.488120
0.505512 -0.108387 0.463344
-0.507652 -0.012260 -0.928366
-0.735813 -0.198139 -0.928366
0.605380 0.011303 0.873327
0.753040 -0.245647 -0.048281
-0.745348 -0.060153 0.383452
-0.888749 0.044282 -0.067321
-0.604805 0.217684 -0.928366
0.288143 0.010276 -0.089547
-0.600533 0.207987 0.234661
-0.808587 0.178759 -0.004280
0.461408 0.488574 -0.928366
-0.269926 0.294736 -0.530203
-0.943662 0.089011 -0.276465
-0.420996 0.004189 0.353706
0.478182 -0.442341 -0.595255
-0.359433 -0.277139 -0.280489
-0.282579 0.417999 -0.807844
-0.702686 -0.178911 -0.928366
0.645064 0.169883 -0.928366
-0.168427 0.142755 -0.565820
-0.810115 -0.469550 -0.928366
0.694092 0.344470 -0.928366
-0.550218 -0.041109 0.729766
0.148436 0.013071 -0.555300
0.642921 0.063021 0.661085
-0.591095 0.002054 0.918213
-0.564431 0.030805 0.787541
0.695371 -0.178575 0.242812
-0.373753 0.362358 -0.483974
-0.874834 -0.101295 -0.928366
0.181964 -0.311387 -0.791436
0.666288 0.088007 0.547343
-0.769751 -0.107227 -0.928366
0.234647 -0.255618 -0.928366
-0.841350 0.229987 -0.199076
0.647078 -0.517504 -0.805922
-0.339520 0.279005 -0.328925
-0.714772 0.455329 -0.928366
1.033250 -0.294982 -0.837144
-0.556047 0.014852 0.794549
-0.153784 0.074933 -0.557971
-0.739695 -0.108470 0.321145
-0.244099 0.418559 -0.928366
-0.585444 -0.079487 0.662105
0.749654 -0.096666 0.315746
0.402755 0.346088 -0.928366
-0.807260 0.314142 -0.928366
0.626411 0.029679 0.780255
0.686125 0.042316 0.588449
0.148779 -0.298382 -0.856353
-0.129560 0.137364 -0.928366
0.740617 -0.036392 0.422688
0.424589 -0.233132 -0.030967
0.979541 0.323242 -0.750371
-0.354042 0.226138 -0.169125
-0.433037 -0.449595 -0.928366
0.533375 -0.422728 -0.494834
0.957668 -0.029623 -0.928366
-0.413887 0.375825 -0.928366
0.686772 -0.502106 -0.774048
0.690234 0.072709 0.524574
0.369985 -0.179558 -0.026913
0.607367 -0.004600 0.879172
0.660535 -0.022152 0.692535
-0.626101 -0.162227 0.376696
0.277667 -0.230690 -0.928366
0.177938 0.321502 -0.822587
1.026552 -0.287082 -0.803960
0.566643 -0.233329 0.145528
0.486543 -0.484966 -0.726924
-0.210623 -0.249923 -0.595289
0.168909 -0.009292 -0.486754
0.905888 -0.377088 -0.704217
0.573064 0.091282 0.616673
0.672258 0.437490 -0.928366
0.652916 0.479942 -0.683718
-0.808254 0.204701 -0.928366
0.501231 0.123370 0.415152
0.434005 0.163263 0.167932
0.569654 0.038202 0.778530
-0.775211 -0.102287 0.232838
0.478676 0.102203 0.416354
0.597193 0.001899 0.914059
-0.761858 0.178139 0.110981
0.673868 0.083429 0.541863
0.759295 -0.264031 -0.111144
-0.270052 0.277226 -0.491226
1.037029 0.304161 -0.864741
-0.866287 0.370291 -0.928366
-0.619837 0.194140 0.275234
0.796778 0.081941 0.197310
0.566783 -0.093725 0.603645
-0.370334 0.090529 -0.928366
-0.653490 -0.463068 -0.928366
0.934136 -0.265510 -0.511677
0.806325 -0.083333 0.166021
-0.296561 0.235758 -0.335059
0.591870 -0.015127 0.877703
0.319619 -0.063211 -0.008062
-0.860048 -0.146912 -0.086602
-0.278162 0.192956 -0.303488
-0.740318 0.196763 0.109714
0.591612 0.182914 0.318624
0.508211 -0.226355 0.122249
-0.437266 0.231260 -0.928366
-0.478610 -0.499795 -0.928366
0.530272 0.106741 0.515091
0.986680 -0.106796 -0.430223
-0.604112 -0.107126 0.569480
0.517552 -0.021175 0.666054
-0.716146 -0.041091 0.496718
0.314336 0.154565 -0.928366
0.816632 0.069764 0.148588
-0.560781 -0.393926 -0.928366
-0.294954 0.309364 -0.504357
0.413948 -0.070479 0.285887
0.940415 0.090644 -0.267345
0.574191 0.063410 0.707569
-0.815226 0.415710 -0.642361
0.839378 -0.439166 -0.749594
-0.208334 -0.066950 -0.374260
0.752610 -0.043229 -0.928366
0.364965 -0.034263 -0.928366
-0.689685 -0.029741 0.592273
0.824949 -0.187956 -0.065888
-0.531020 -0.096896 0.544335
0.073335 -0.086517 -0.928366
0.291666 -0.016776 -0.078781
-0.823278 0.122229 0.060356
-0.631072 -0.020706 0.784910
-0.892386 -0.153894 -0.192693
0.603036 0.127350 0.502638
0.742868 0.069531 0.378697
0.251067 -0.046582 -0.223074
-0.650627 0.202311 0.227485
0.529707 -0.151197 -0.928366
0.441397 0.220699 0.035209
-0.459436 -0.060893 -0.928366
0.478274 -0.445341 -0.604858
-0.589162 -0.012339 0.884940
-0.854720 0.067592 -0.928366
1.132951 0.058228 -0.880767
-0.587250 -0.355416 -0.256527
-0.823446 0.420729 -0.670107
0.759694 0.081504 0.310885
0.959584 0.164729 -0.410239
0.362168 -0.444931 -0.928366
0.665516 -0.157238 -0.928366
-0.838314 -0.273204 -0.294794
-0.822175 -0.076443 0.124160
-0.637880 0.467267 -0.636249
0.268806 -0.085989 -0.190756
0.444082 0.476762 -0.736904
0.574855 0.376387 -0.327769
-0.887499 0.273925 -0.928366
-0.230332 -0.255501 -0.928366
-0.895626 -0.074694 -0.928366
0.461521 -0.244455 0.002589
0.375932 0.107442 0.119995
0.709198 0.407273 -0.483068
-0.561899 -0.086009 0.623112
0.695345 0.224645 0.105974
0.561424 0.382007 -0.349428
-0.830152 0.421284 -0.682564
1.024912 -0.340455 -0.928366
0.769473 -0.249058 -0.088446
-0.540376 0.148084 0.404128
-0.353009 -0.426755 -0.704220
-0.269311 0.204817 -0.349424
-1.111023 0.122040 -0.844533
0.433400 -0.356493 -0.374065
-0.631787 0.211078 0.213198
0.501904 -0.022475 0.614494
-0.588399 -0.000023 0.911885
0.824241 0.336369 -0.431607
0.845679 0.490047 -0.908961
0.379454 -0.396273 -0.572675
-0.213156 -0.215948 -0.529090
-0.711129 -0.352365 -0.310068
0.508775 0.430707 -0.534738
-0.596591 0.107296 0.570549
0.726308 -0.029479 0.474390
-0.688819 -0.335959 -0.235842
0.649835 0.115674 0.499260
-0.614759 -0.029178 0.807720
0.287324 0.262846 -0.416320
0.712774 0.083188 0.443210
-0.800683 0.374408 -0.928366
-0.116812 -0.210392 -0.928366
-0.599260 0.042674 0.784757
-0.654605 -0.322126 -0.164632
-0.801876 0.320144 -0.345204
0.685561 -0.061247 0.559353
0.645201 -0.513980 -0.793600
-1.046117 0.030249 -0.584244
-0.050806 -0.098110 -0.928366
0.907810 0.029240 -0.124378
0.383822 0.178767 -0.928366
0.118280 -0.080736 -0.677884
0.606019 0.035498 0.802722
0.485750 -0.026061 0.559348
-0.395140 0.065192 0.232867
-0.567800 -0.513861 -0.928366
0.682082 0.214151 0.155671
0.054732 0.054819 -0.928366
0.325396 -0.194513 -0.175320
0.615386 -0.019003 0.831356
-0.433530 0.213078 0.040532
-0.108446 0.120017 -0.928366
-0.748950 -0.525969 -0.899980
0.500840 -0.169529 0.284619
0.567070 -0.132585 0.477822
-0.225339 -0.388501 -0.928366
-0.328330 0.443587 -0.928366
-0.709562 0.215724 0.111574
-1.038442 0.208400 -0.709867
0.110867 0.101615 -0.715171
0.293994 -0.371275 -0.661378
0.119088 -0.143351 -0.723125
-0.691537 -0.123860 0.401495
0.906074 0.369813 -0.928366
0.209128 0.254383 -0.607618
0.203664 0.235108 -0.588671
-0.293223 -0.437625 -0.840463
-1.142186 0.011458 -0.928366
-0.039167 -0.003389 -0.918926
0.423634 -0.417329 -0.573355
0.780190 -0.319095 -0.304217
0.174124 -0.203833 -0.928366
-0.284135 0.334220 -0.589355
0.861240 -0.048077 0.021113
0.411205 0.216196 -0.928366
0.570622 0.173339 -0.928366
0.585436 0.007213 0.892688
0.530180 0.054678 0.649891
0.089163 0.024934 -0.928366
-0.803492 0.033485 0.219035
0.866729 0.220913 -0.243253
0.604454 -0.285353 -0.023531
-0.589392 0.001866 0.913798
-0.913150 -0.180398 -0.295561
-0.602399 -0.213602 0.215718
0.254247 0.278342 -0.928366
0.764922 0.167299 0.129559
0.192889 0.220039 -0.594718
0.523667 -0.112726 0.486628
0.515073 0.001368 0.667425
-0.234836 0.232231 -0.495475
-0.519798 -0.078649 0.569438
-0.658841 0.074314 0.598172
-0.888427 -0.279794 -0.427111
0.696925 -0.071061 -0.928366
-0.366868 0.173255 -0.022122
-1.120679 -0.052807 -0.838210
-0.630116 0.465016 -0.626527
-0.590564 -0.019685 0.862099
0.710727 -0.059431 0.489796
0.633632 0.062912 0.679343
0.674409 0.422247 -0.928366
-1.085062 -0.095623 -0.928366
-0.474900 -0.076018 0.459233
-0.773099 -0.112124 0.222173
0.542644 0.256818 -0.928366
0.275752 -0.176672 -0.928366
-0.425067 -0.407885 -0.542415
-0.480172 -0.025441 -0.928366
-0.578818 -0.542168 -0.928366
-0.616514 -0.107130 0.563009
0.388735 -0.174504 0.031975
-0.759581 -0.359091 -0.390644
-0.538154 -0.013028 0.739345
1.113979 -0.124766 -0.856222
-0.854370 -0.039247 -0.928366
0.687205 -0.133334 0.384839
0.514083 -0.077690 0.558412
-0.777787 -0.087261 0.248221
0.437983 0.116354 0.281363
-0.704386 -0.187317 0.202511
0.405682 0.435228 -0.651509
0.409825 -0.153790 0.130239
-0.094324 0.005531 -0.735134
-0.077022 0.118584 -0.928366
0.559014 0.196042 0.264949
-0.709445 0.090228 0.438234
0.931561 -0.442172 -0.927278
-0.503766 0.338233 -0.237946
0.639994 0.127658 0.475316
0.519643 -0.125392 0.443543
-0.768715 -0.233756 -0.045728
0.950839 0.009679 -0.928366
0.904223 0.255215 -0.412367
-0.876068 -0.166183 -0.164794
0.160604 0.320510 -0.866660
-0.631034 0.441591 -0.928366
0.078606 0.124393 -0.836816
-0.593481 -0.000074 0.927847
-0.133320 0.016731 -0.606059
-0.394960 -0.154745 0.089702
0.207312 -0.328712 -0.761712
0.618254 -0.141793 0.448483
-0.897607 -0.405242 -0.760806
-0.624966 -0.394401 -0.390523
-0.708917 0.383774 -0.928366
-0.600394 0.024158 0.844479
0.745622 -0.246988 -0.038830
-0.128273 0.056453 -0.633249
0.925864 -0.153059 -0.928366
-0.831512 0.167778 -0.042736
0.638006 0.358258 -0.928366
0.285980 0.192831 -0.281116
0.526890 -0.172991 0.310645
0.700262 -0.268741 -0.035730
-0.222417 -0.278306 -0.928366
-1.089079 0.099821 -0.928366
-0.373617 -0.020925 0.192630
-0.570421 0.001804 0.851720
-0.500847 0.439092 -0.928366
0.622580 -0.340881 -0.212076
0.666295 0.010810 0.682539
-0.458868 0.295250 -0.153074
0.347872 0.492389 -0.928366
-0.561939 0.131565 -0.928366
-0.268523 0.090895 -0.195962
0.290450 0.184434 -0.253724
0.716802 -0.251763 -0.928366
-0.242602 0.162019 -0.359483
-0.459329 -0.108117 0.354401
0.694133 0.283901 -0.075840
0.636728 -0.450821 -0.581313
-0.751991 0.505687 -0.928366
-0.641013 0.006268 0.768099
1.147911 -0.015116 -0.928366
0.760859 0.000835 0.369973
0.980753 -0.136239 -0.440524
-0.778010 0.004949 0.312591
0.956156 -0.097734 -0.324120
-0.613407 0.021498 0.830347
0.599219 0.129395 0.496603
-0.592228 0.206816 0.238969
0.114809 0.035968 -0.671250
0.280262 0.206346 -0.321518
0.843587 0.027889 -0.928366
0.813286 0.171243 -0.000782
-0.603705 -0.010423 0.879376
-0.466192 -0.398207 -0.928366
-0.574073 0.048053 0.755788
0.444684 -0.363410 -0.928366
-0.635970 0.128616 0.476714
-1.027276 0.061961 -0.532747
-0.929824 -0.066661 -0.215035
-0.482962 0.361684 -0.332144
0.650910 -0.341347 -0.928366
0.701948 -0.069803 0.498024
-1.087052 0.211653 -0.862179
-0.528326 -0.340300 -0.928366
1.018297 -0.003647 -0.488197
-0.259021 -0.015202 -0.928366
-0.985711 -0.254184 -0.629987
0.633376 -0.103404 0.558755
0.750245 -0.270732 -0.114673
0.682160 -0.104837 0.470360
0.669127 -0.280734 -0.040912
0.997955 -0.316197 -0.783328
1.057144 0.191029 -0.928366
0.876228 -0.258799 -0.349655
0.324943 -0.000611 -0.928366
0.664762 0.205512 0.203139
-0.802343 0.202293 -0.041188
-0.578250 0.006393 0.873726
-0.486433 0.121126 0.389837
0.870026 -0.087957 -0.039388
0.289872 0.234472 -0.928366
0.442098 0.225668 0.022818
0.546628 0.471311 -0.650369
0.647438 -0.014378 0.741791
0.463266 -0.042122 -0.928366
-0.846905 -0.387562 -0.928366
-0.407790 -0.257701 -0.928366
0.686912 0.178376 0.256939
0.797280 -0.153142 0.078251
-0.697968 0.321192 -0.928366
0.694643 0.205143 -0.928366
-0.661939 -0.040447 0.662926
-0.666013 0.077299 0.574719
0.856127 0.130947 -0.928366
0.964213 0.324893 -0.715138
0.593701 -0.014502 0.880012
0.250907 0.434676 -0.916164
0.726736 -0.209567 0.100303
0.169621 0.106834 -0.528245
-0.302616 0.181178 -0.213504
0.818100 -0.060914 0.152148
0.488214 -0.414311 -0.928366
-0.503564 0.096743 0.488422
0.712962 -0.525952 -0.869578
0.542593 -0.143793 0.420079
-0.815221 -0.086501 0.134557
0.444611 -0.320075 -0.248113
-0.992397 0.013378 -0.402561
0.715694 -0.277245 -0.081775
-0.441551 0.021754 0.417222
0.955819 -0.141461 -0.368638
0.774827 0.086069 -0.928366
0.352020 0.003784 -0.928366
-0.417916 0.174387 0.103841
-0.924635 0.132547 -0.261045
-0.555612 -0.425370 -0.928366
-0.170156 0.049397 -0.491836
-0.237230 -0.152035 -0.362334
0.662879 0.022670 0.684573
-0.450140 0.421473 -0.555423
-0.592712 -0.013076 0.884729
-0.746250 -0.484319 -0.928366
0.601171 0.046340 0.771713
-0.607124 0.386227 -0.359876
-0.963039 -0.094300 -0.343410
-0.650775 0.334966 -0.928366
-0.503654 -0.117582 0.435418
-0.985673 -0.280003 -0.928366
-1.039738 0.285650 -0.838185
0.585360 -0.002785 0.900181
0.475980 -0.367025 -0.356079
0.731252 0.336453 -0.928366
-0.725911 -0.031379 0.474264
0.973419 0.166213 -0.454402
-0.258909 -0.339209 -0.928366
-0.450609 0.529922 -0.928366
-0.945399 -0.027088 -0.248619
0.590773 0.426772 -0.928366
0.548664 -0.107870 0.539175
0.790926 0.056636 -0.928366
0.371595 -0.233613 -0.145296
0.568509 -0.455428 -0.591982
-1.027040 -0.210992 -0.679289
0.731075 0.246577 -0.013087
0.449324 0.371089 -0.398488
0.930035 0.392244 -0.794734
0.701242 -0.026791 0.557784
-0.330843 0.127133 -0.043854
-0.668142 -0.283153 -0.047854
0.520961 -0.159971 0.343085
-0.671134 -0.017607 0.662507
-0.517638 -0.079905 0.561455
0.505770 0.060729 0.573131
-0.985080 -0.262189 -0.642905
0.725419 -0.109544 0.356391
0.660972 -0.073308 0.595907
0.394948 0.459419 -0.739722
-1.023907 -0.125273 -0.566358
0.950278 -0.249858 -0.523954
0.552018 -0.215925 0.195552
-0.556424 0.019646 0.788961
-0.756768 0.240470 -0.040788
0.988053 0.376264 -0.889356
0.490413 -0.141741 0.344460
0.545687 0.006913 0.767849
-0.457769 -0.055429 0.440138
-0.327303 -0.219294 -0.220872
1.070228 -0.071244 -0.678891
-0.583929 -0.012327 0.876662
0.670104 0.064559 0.594035
-0.607182 -0.178777 0.330659
-0.502656 0.011193 0.623780
-0.314408 0.209714 -0.234892
0.323828 0.243486 -0.282346
-0.244289 0.032935 -0.928366
0.466598 -0.433822 -0.928366
-0.604758 -0.171147 0.356609
0.226381 -0.277270 -0.604751
-0.579992 0.206562 0.238390
0.885889 -0.472068 -0.922854
0.559801 0.004649 0.815488
0.654002 0.200465 0.230228
-0.344109 -0.139330 -0.023419
-0.627153 -0.170891 0.347687
-0.473784 -0.311675 -0.184367
-0.647678 0.057581 0.664468
-0.815365 -0.201826 -0.071785
-0.259082 -0.374111 -0.743924
-1.067794 -0.286473 -0.919064
0.743122 0.344895 -0.325013
0.826118 0.381084 -0.560142
-0.527694 0.291653 -0.928366
-0.282798 0.431415 -0.843505
0.438616 0.375582 -0.425650
-0.613481 0.039904 0.779376
0.317366 0.251017 -0.315166
0.293910 0.025959 -0.073489
0.601862 -0.003416 0.897773
-0.904206 0.015967 -0.109210
-0.583488 0.003194 0.893832
0.672661 -0.492397 -0.734116
-0.589275 -0.003254 0.911001
-0.255223 -0.064038 -0.218739
0.389655 0.296336 -0.270263
-0.581772 -0.154434 0.412143
-0.599888 -0.061715 0.721496
1.011035 -0.248737 -0.692116
0.344547 0.383759 -0.928366
0.516997 -0.296537 -0.928366
0.577404 0.233015 0.149834
0.121809 0.108771 -0.684692
-0.595930 -0.001228 0.918821
-0.632242 0.527974 -0.836318
0.599299 -0.003414 0.905483
-0.213478 0.003762 -0.928366
0.543256 -0.214479 0.194199
-0.719411 -0.282143 -0.101723
-0.658305 0.289446 -0.060454
-1.047736 0.115890 -0.634761
-0.475993 -0.481890 -0.928366
0.527187 -0.089214 0.558144
-0.728650 0.225674 -0.928366
0.603595 0.009465 0.881859
0.530394 0.195643 0.243296
-0.771012 0.176908 -0.928366
-0.552435 -0.550481 -0.911631
0.742282 -0.007180 0.431326
-0.689833 0.030145 0.591403
-0.781587 0.297396 -0.244854
0.471090 0.114167 0.370790
-0.717934 -0.539852 -0.918441
0.665389 -0.024903 0.674275
-0.724310 -0.105343 0.368114
-0.962708 -0.049550 -0.928366
0.489355 0.526882 -0.928366
0.517645 0.340192 -0.233341
0.679971 -0.356374 -0.928366
0.291955 -0.158988 -0.207476
-0.767922 -0.084711 0.281549
0.962180 -0.403367 -0.928366
0.714084 0.133993 0.327141
-0.598140 -0.325069 -0.155315
-0.866699 0.147112 -0.106391
0.581121 -0.164401 0.378850
0.800061 -0.044322 0.223647
0.675887 0.374281 -0.349219
0.455154 -0.296722 -0.162711
0.843302 -0.279233 -0.320859
0.650169 0.141710 0.419435
-0.528209 0.281432 -0.034538
0.887313 -0.368791 -0.643698
0.711702 0.123318 -0.928366
0.138940 -0.290084 -0.868642
0.533733 0.195475 0.247158
-1.131981 -0.136261 -0.923653
-0.441956 0.007407 0.423135
-0.823409 0.349385 -0.466067
-0.802895 0.157981 0.053598
-0.153424 -0.241586 -0.744599
0.069402 0.165482 -0.903147
0.691217 0.053960 0.555825
0.891227 0.179961 -0.231712
-0.878602 0.042377 -0.032931
0.459481 0.179536 0.181874
0.653155 -0.399595 -0.418457
0.934272 -0.109777 -0.928366
-0.447832 0.303584 -0.193818
0.581841 -0.012451 0.871862
-0.766047 0.261316 -0.928366
-0.707555 -0.030648 0.534192
1.020780 0.167410 -0.601806
0.450843 -0.139546 -0.928366
-0.823097 0.279697 -0.278176
-1.086306 -0.250183 -0.914349
0.323656 0.130572 -0.070412
0.947458 -0.169675 -0.380520
0.295372 -0.345130 -0.928366
0.631807 -0.071461 -0.928366
0.769133 0.175337 0.100753
0.605176 -0.006666 0.883095
0.340652 -0.185406 -0.928366
-0.326228 -0.091108 -0.012386
-0.584604 -0.006346 0.892366
-0.787081 -0.226020 -0.063933
0.321238 0.024495 -0.928366
0.244599 -0.200668 -0.412823
0.280537 -0.322237 -0.568612
0.291542 0.315592 -0.527208
-0.986710 -0.347889 -0.822075
0.397715 -0.293660 -0.247818
-0.909016 -0.062930 -0.144581
0.345946 0.015988 0.101988
-0.722582 -0.451136 -0.635911
-0.609540 0.346540 -0.228028
0.830011 -0.100558 0.071218
0.503221 -0.238501 0.078497
0.525500 0.254349 0.050893
0.837306 0.044494 0.101744
0.983917 0.012652 -0.374230
-0.813155 -0.017128 0.193439
-0.602888 -0.018924 0.857717
0.861755 -0.352780 -0.928366
-0.194560 0.120926 -0.460684
-0.683689 0.044241 0.593046
-0.695714 -0.265120 -0.928366
-0.420826 -0.168536 0.124440
-0.676764 0.238671 0.085602
-0.485255 -0.023655 -0.928366
0.723310 -0.033008 0.481390
0.516203 0.072380 0.575764
-0.698046 0.223246 0.106435
-0.582306 0.168558 0.365302
-1.117253 0.040451 -0.928366
-0.496585 -0.137996 0.366571
0.097397 0.130327 -0.928366
0.585976 -0.054998 0.743400
-0.410551 -0.065425 0.281204
0.458065 -0.074966 0.412829
-0.544919 -0.136486 0.445625
-0.639703 -0.443468 -0.557916
0.291235 0.272926 -0.428746
-0.542874 0.536082 -0.928366
